ncols 121
nrows 121
xllcorner -60
yllcorner -60
cellsize 1
NODATA_value -9999
0.104 0.153 0.246 0.279 0.317 0.358 0.407 0.440 0.500 0.552 0.571 0.607 0.676 0.702 0.722 0.765 0.793 0.836 0.852 0.912 0.899 0.952 0.936 0.950 0.964 0.982 1.004 1.020 0.989 1.031 1.011 1.010 1.006 1.010 0.981 0.981 0.960 0.901 0.887 0.872 0.851 0.803 0.778 0.782 0.730 0.700 0.668 0.657 0.609 0.571 0.516 0.480 0.431 0.392 0.393 0.326 0.281 0.266 0.214 0.163 0.159 0.137 0.084 0.065 0.025 0.008 -0.061 -0.069 -0.089 -0.102 -0.122 -0.150 -0.183 -0.184 -0.201 -0.238 -0.239 -0.293 -0.280 -0.300 -0.289 -0.306 -0.303 -0.298 -0.324 -0.315 -0.339 -0.331 -0.328 -0.340 -0.353 -0.358 -0.370 -0.370 -0.324 -0.330 -0.341 -0.372 -0.342 -0.344 -0.338 -0.325 -0.362 -0.327 -0.345 -0.339 -0.349 -0.341 -0.377 -0.336 -0.362 -0.361 -0.384 -0.374 -0.386 -0.358 -0.358 -0.366 -0.372 -0.358 -0.378
0.141 0.200 0.224 0.258 0.323 0.381 0.430 0.442 0.504 0.544 0.588 0.612 0.654 0.701 0.739 0.758 0.781 0.820 0.840 0.869 0.931 0.957 0.929 0.950 0.975 0.990 1.009 0.996 0.998 1.020 1.013 1.012 0.991 0.994 0.962 0.954 0.923 0.915 0.906 0.848 0.831 0.833 0.804 0.771 0.722 0.686 0.680 0.612 0.581 0.551 0.532 0.473 0.464 0.406 0.363 0.320 0.293 0.245 0.238 0.187 0.173 0.133 0.083 0.048 0.031 0.013 -0.034 -0.055 -0.105 -0.102 -0.140 -0.150 -0.157 -0.198 -0.219 -0.244 -0.228 -0.238 -0.237 -0.279 -0.290 -0.307 -0.281 -0.276 -0.288 -0.290 -0.287 -0.326 -0.291 -0.328 -0.317 -0.325 -0.311 -0.310 -0.318 -0.314 -0.320 -0.323 -0.341 -0.314 -0.334 -0.353 -0.326 -0.341 -0.338 -0.341 -0.327 -0.327 -0.370 -0.375 -0.369 -0.361 -0.371 -0.348 -0.354 -0.373 -0.357 -0.392 -0.384 -0.365 -0.379
0.145 0.170 0.246 0.297 0.338 0.343 0.398 0.472 0.484 0.526 0.610 0.618 0.673 0.694 0.756 0.786 0.784 0.833 0.887 0.867 0.889 0.924 0.962 0.972 0.963 0.984 0.972 0.995 0.994 0.999 0.977 1.001 0.969 0.978 0.971 0.916 0.906 0.912 0.899 0.845 0.847 0.810 0.766 0.724 0.693 0.705 0.656 0.600 0.578 0.520 0.506 0.465 0.446 0.378 0.371 0.306 0.273 0.236 0.235 0.158 0.125 0.138 0.106 0.053 0.029 0.008 -0.046 -0.054 -0.100 -0.096 -0.111 -0.124 -0.181 -0.172 -0.197 -0.227 -0.196 -0.239 -0.255 -0.257 -0.261 -0.246 -0.250 -0.252 -0.261 -0.268 -0.263 -0.277 -0.276 -0.279 -0.300 -0.297 -0.286 -0.305 -0.311 -0.300 -0.298 -0.296 -0.312 -0.300 -0.327 -0.305 -0.320 -0.327 -0.334 -0.317 -0.355 -0.338 -0.343 -0.341 -0.347 -0.379 -0.366 -0.344 -0.360 -0.374 -0.369 -0.391 -0.362 -0.411 -0.378
0.127 0.165 0.226 0.261 0.340 0.394 0.417 0.483 0.488 0.547 0.573 0.607 0.679 0.719 0.726 0.749 0.804 0.841 0.850 0.886 0.928 0.914 0.944 0.965 0.957 0.956 0.989 0.967 0.990 0.983 0.990 0.991 0.978 0.959 0.955 0.927 0.920 0.893 0.871 0.846 0.824 0.802 0.771 0.749 0.717 0.675 0.639 0.582 0.552 0.554 0.479 0.479 0.399 0.399 0.352 0.332 0.270 0.231 0.204 0.190 0.155 0.108 0.067 0.049 0.052 -0.016 -0.039 -0.057 -0.056 -0.113 -0.097 -0.150 -0.118 -0.157 -0.147 -0.178 -0.200 -0.190 -0.224 -0.226 -0.218 -0.219 -0.235 -0.229 -0.250 -0.241 -0.262 -0.274 -0.259 -0.270 -0.246 -0.278 -0.272 -0.286 -0.278 -0.251 -0.257 -0.276 -0.272 -0.270 -0.317 -0.313 -0.317 -0.312 -0.315 -0.336 -0.327 -0.337 -0.360 -0.366 -0.341 -0.357 -0.368 -0.387 -0.372 -0.360 -0.360 -0.381 -0.376 -0.366 -0.371
0.121 0.197 0.243 0.290 0.344 0.379 0.426 0.452 0.495 0.562 0.581 0.642 0.645 0.707 0.741 0.757 0.798 0.836 0.874 0.867 0.874 0.921 0.932 0.924 0.935 0.960 0.955 0.983 0.986 0.987 0.981 0.975 0.951 0.961 0.946 0.910 0.913 0.892 0.840 0.845 0.814 0.771 0.738 0.703 0.683 0.674 0.630 0.577 0.564 0.529 0.489 0.459 0.419 0.394 0.323 0.324 0.297 0.227 0.206 0.191 0.162 0.119 0.086 0.085 0.061 -0.006 -0.004 -0.047 -0.051 -0.076 -0.090 -0.113 -0.114 -0.131 -0.132 -0.180 -0.184 -0.159 -0.206 -0.175 -0.205 -0.193 -0.211 -0.191 -0.224 -0.230 -0.216 -0.211 -0.238 -0.197 -0.245 -0.220 -0.229 -0.249 -0.222 -0.220 -0.237 -0.275 -0.272 -0.258 -0.283 -0.285 -0.285 -0.306 -0.316 -0.305 -0.301 -0.296 -0.318 -0.324 -0.341 -0.354 -0.374 -0.369 -0.362 -0.366 -0.358 -0.404 -0.400 -0.413 -0.396
0.140 0.199 0.205 0.288 0.344 0.366 0.433 0.476 0.501 0.523 0.573 0.641 0.645 0.692 0.747 0.773 0.789 0.821 0.860 0.879 0.897 0.896 0.906 0.957 0.961 0.945 0.957 0.965 0.976 0.936 0.929 0.932 0.953 0.938 0.930 0.905 0.870 0.843 0.823 0.785 0.779 0.738 0.706 0.688 0.667 0.623 0.609 0.592 0.562 0.482 0.491 0.453 0.413 0.388 0.333 0.317 0.291 0.255 0.200 0.160 0.144 0.099 0.070 0.082 0.023 0.006 -0.005 -0.035 -0.019 -0.048 -0.082 -0.065 -0.111 -0.127 -0.120 -0.133 -0.119 -0.132 -0.176 -0.140 -0.139 -0.150 -0.192 -0.171 -0.185 -0.172 -0.197 -0.194 -0.162 -0.199 -0.202 -0.184 -0.172 -0.198 -0.181 -0.185 -0.220 -0.244 -0.249 -0.236 -0.219 -0.232 -0.260 -0.267 -0.266 -0.273 -0.300 -0.325 -0.304 -0.339 -0.348 -0.339 -0.344 -0.379 -0.374 -0.345 -0.372 -0.367 -0.368 -0.383 -0.400
0.145 0.174 0.238 0.268 0.299 0.383 0.394 0.438 0.485 0.528 0.597 0.596 0.659 0.684 0.728 0.737 0.764 0.789 0.848 0.846 0.866 0.902 0.912 0.909 0.928 0.930 0.924 0.963 0.931 0.951 0.930 0.932 0.932 0.920 0.877 0.883 0.855 0.839 0.834 0.800 0.766 0.727 0.681 0.693 0.667 0.633 0.574 0.559 0.522 0.477 0.450 0.420 0.414 0.381 0.330 0.309 0.259 0.238 0.185 0.161 0.159 0.116 0.101 0.085 0.036 0.041 -0.014 0.015 -0.024 -0.048 -0.051 -0.056 -0.085 -0.081 -0.100 -0.120 -0.118 -0.118 -0.138 -0.137 -0.119 -0.115 -0.135 -0.148 -0.115 -0.107 -0.148 -0.129 -0.152 -0.124 -0.156 -0.126 -0.154 -0.129 -0.161 -0.162 -0.183 -0.183 -0.185 -0.199 -0.192 -0.241 -0.251 -0.251 -0.273 -0.287 -0.283 -0.313 -0.294 -0.287 -0.314 -0.305 -0.361 -0.340 -0.367 -0.345 -0.361 -0.402 -0.402 -0.367 -0.383
0.137 0.189 0.219 0.291 0.325 0.360 0.413 0.464 0.502 0.516 0.598 0.632 0.670 0.673 0.725 0.767 0.771 0.798 0.820 0.843 0.868 0.871 0.893 0.924 0.895 0.921 0.900 0.915 0.922 0.919 0.934 0.916 0.905 0.888 0.861 0.861 0.848 0.807 0.769 0.752 0.757 0.715 0.698 0.679 0.626 0.589 0.565 0.543 0.481 0.473 0.449 0.395 0.370 0.353 0.299 0.292 0.262 0.213 0.188 0.182 0.163 0.115 0.099 0.092 0.040 0.034 0.011 0.016 0.010 -0.021 -0.034 -0.061 -0.052 -0.047 -0.077 -0.050 -0.073 -0.091 -0.079 -0.062 -0.061 -0.057 -0.069 -0.101 -0.087 -0.069 -0.067 -0.097 -0.107 -0.071 -0.101 -0.111 -0.099 -0.125 -0.096 -0.132 -0.127 -0.127 -0.144 -0.154 -0.191 -0.195 -0.187 -0.197 -0.240 -0.251 -0.249 -0.292 -0.278 -0.274 -0.315 -0.315 -0.342 -0.327 -0.362 -0.375 -0.385 -0.385 -0.374 -0.388 -0.394
0.110 0.184 0.235 0.264 0.298 0.350 0.404 0.457 0.469 0.532 0.591 0.605 0.644 0.695 0.710 0.753 0.774 0.766 0.784 0.849 0.853 0.850 0.897 0.866 0.914 0.917 0.922 0.882 0.877 0.890 0.899 0.879 0.870 0.853 0.840 0.830 0.816 0.796 0.774 0.741 0.710 0.679 0.686 0.636 0.588 0.596 0.573 0.508 0.483 0.438 0.429 0.397 0.354 0.347 0.306 0.307 0.253 0.237 0.224 0.157 0.154 0.121 0.087 0.109 0.049 0.063 0.021 0.028 -0.013 0.020 -0.017 -0.035 -0.036 -0.027 -0.049 -0.053 -0.064 -0.059 -0.026 -0.020 -0.045 -0.016 -0.013 -0.019 -0.042 -0.020 -0.051 -0.047 -0.027 -0.042 -0.049 -0.050 -0.032 -0.067 -0.049 -0.088 -0.079 -0.106 -0.099 -0.121 -0.122 -0.169 -0.174 -0.189 -0.217 -0.199 -0.226 -0.237 -0.262 -0.302 -0.269 -0.293 -0.329 -0.324 -0.328 -0.362 -0.373 -0.387 -0.380 -0.366 -0.373
0.107 0.172 0.222 0.260 0.301 0.344 0.414 0.443 0.501 0.531 0.559 0.600 0.610 0.672 0.706 0.742 0.760 0.781 0.795 0.793 0.850 0.847 0.852 0.874 0.851 0.857 0.867 0.862 0.877 0.878 0.869 0.860 0.839 0.825 0.788 0.782 0.760 0.733 0.718 0.716 0.675 0.645 0.639 0.615 0.586 0.545 0.518 0.484 0.486 0.434 0.406 0.362 0.352 0.326 0.321 0.295 0.272 0.226 0.206 0.173 0.171 0.121 0.111 0.103 0.059 0.076 0.058 0.046 0.015 -0.004 -0.000 0.006 -0.014 0.017 0.004 -0.011 -0.021 -0.016 -0.011 -0.009 0.025 0.030 0.043 0.009 0.011 0.030 0.012 0.048 0.031 0.029 0.040 0.005 0.009 0.005 -0.017 -0.004 -0.035 -0.035 -0.054 -0.082 -0.120 -0.127 -0.122 -0.152 -0.173 -0.179 -0.198 -0.242 -0.239 -0.249 -0.291 -0.283 -0.324 -0.318 -0.311 -0.333 -0.372 -0.358 -0.384 -0.371 -0.383
0.115 0.172 0.190 0.254 0.295 0.331 0.391 0.415 0.447 0.532 0.565 0.566 0.627 0.659 0.658 0.691 0.730 0.741 0.791 0.810 0.782 0.814 0.822 0.826 0.855 0.828 0.848 0.870 0.820 0.821 0.834 0.816 0.801 0.812 0.782 0.754 0.766 0.712 0.701 0.673 0.648 0.651 0.603 0.609 0.582 0.555 0.505 0.467 0.460 0.417 0.399 0.396 0.326 0.323 0.313 0.249 0.248 0.212 0.182 0.183 0.176 0.136 0.132 0.132 0.093 0.060 0.080 0.058 0.068 0.068 0.030 0.057 0.040 0.047 0.063 0.032 0.023 0.060 0.071 0.056 0.095 0.062 0.061 0.067 0.078 0.110 0.094 0.108 0.085 0.113 0.112 0.070 0.063 0.083 0.057 0.050 0.012 0.032 0.009 -0.048 -0.036 -0.057 -0.116 -0.092 -0.124 -0.161 -0.202 -0.214 -0.230 -0.253 -0.256 -0.279 -0.289 -0.302 -0.331 -0.334 -0.343 -0.339 -0.380 -0.366 -0.365
0.097 0.166 0.183 0.270 0.289 0.313 0.372 0.433 0.465 0.516 0.516 0.549 0.591 0.640 0.677 0.679 0.730 0.731 0.731 0.757 0.776 0.795 0.805 0.815 0.809 0.821 0.839 0.832 0.803 0.786 0.826 0.789 0.760 0.771 0.771 0.721 0.709 0.711 0.653 0.679 0.613 0.597 0.569 0.562 0.515 0.520 0.466 0.442 0.417 0.401 0.389 0.360 0.358 0.297 0.263 0.279 0.220 0.201 0.205 0.181 0.148 0.151 0.132 0.139 0.113 0.101 0.111 0.070 0.088 0.054 0.046 0.068 0.083 0.081 0.077 0.064 0.101 0.080 0.097 0.132 0.156 0.131 0.153 0.174 0.174 0.178 0.185 0.168 0.174 0.173 0.176 0.167 0.152 0.119 0.131 0.096 0.088 0.077 0.058 0.040 -0.009 -0.011 -0.051 -0.084 -0.097 -0.102 -0.165 -0.182 -0.210 -0.238 -0.229 -0.267 -0.258 -0.307 -0.291 -0.300 -0.354 -0.359 -0.356 -0.391 -0.357
0.128 0.138 0.207 0.239 0.298 0.338 0.369 0.411 0.442 0.496 0.520 0.542 0.587 0.634 0.634 0.650 0.698 0.708 0.714 0.752 0.762 0.766 0.767 0.783 0.768 0.788 0.804 0.796 0.790 0.762 0.784 0.754 0.765 0.741 0.714 0.716 0.669 0.682 0.666 0.646 0.598 0.563 0.538 0.561 0.509 0.472 0.456 0.430 0.407 0.372 0.369 0.349 0.304 0.297 0.277 0.251 0.247 0.205 0.214 0.193 0.163 0.140 0.164 0.105 0.138 0.095 0.110 0.098 0.079 0.093 0.104 0.101 0.125 0.123 0.116 0.147 0.140 0.173 0.192 0.193 0.210 0.236 0.242 0.224 0.239 0.245 0.248 0.254 0.276 0.259 0.265 0.242 0.254 0.209 0.207 0.212 0.176 0.153 0.139 0.068 0.052 0.059 0.007 -0.006 -0.068 -0.103 -0.115 -0.113 -0.157 -0.208 -0.228 -0.227 -0.255 -0.300 -0.278 -0.316 -0.347 -0.364 -0.367 -0.366 -0.354
0.082 0.166 0.186 0.213 0.290 0.337 0.350 0.374 0.441 0.490 0.506 0.558 0.541 0.601 0.618 0.624 0.649 0.659 0.708 0.694 0.750 0.744 0.753 0.727 0.760 0.756 0.765 0.747 0.726 0.750 0.722 0.719 0.716 0.706 0.675 0.679 0.639 0.612 0.595 0.585 0.584 0.540 0.516 0.487 0.489 0.468 0.428 0.423 0.407 0.392 0.331 0.306 0.307 0.269 0.247 0.255 0.248 0.214 0.176 0.203 0.193 0.150 0.159 0.127 0.126 0.133 0.130 0.108 0.133 0.126 0.120 0.139 0.133 0.149 0.158 0.182 0.180 0.199 0.239 0.243 0.266 0.292 0.318 0.329 0.344 0.348 0.335 0.353 0.356 0.350 0.328 0.355 0.326 0.320 0.311 0.259 0.225 0.245 0.197 0.141 0.144 0.118 0.080 0.023 0.019 -0.055 -0.046 -0.084 -0.107 -0.164 -0.207 -0.188 -0.237 -0.244 -0.296 -0.317 -0.294 -0.353 -0.327 -0.352 -0.389
0.113 0.140 0.208 0.245 0.251 0.327 0.343 0.391 0.435 0.459 0.485 0.518 0.566 0.562 0.586 0.625 0.632 0.658 0.646 0.661 0.673 0.717 0.708 0.701 0.705 0.704 0.727 0.697 0.734 0.684 0.702 0.708 0.674 0.640 0.665 0.617 0.623 0.611 0.600 0.569 0.549 0.508 0.516 0.493 0.444 0.457 0.437 0.387 0.377 0.363 0.338 0.296 0.294 0.277 0.235 0.234 0.227 0.211 0.196 0.184 0.182 0.145 0.137 0.135 0.136 0.171 0.171 0.140 0.142 0.185 0.164 0.179 0.185 0.198 0.233 0.248 0.257 0.304 0.331 0.308 0.369 0.349 0.379 0.412 0.415 0.439 0.428 0.436 0.459 0.445 0.461 0.419 0.423 0.410 0.380 0.390 0.361 0.318 0.260 0.255 0.191 0.169 0.123 0.061 0.043 0.022 -0.032 -0.048 -0.115 -0.133 -0.146 -0.205 -0.197 -0.224 -0.279 -0.292 -0.298 -0.300 -0.348 -0.324 -0.337
0.073 0.158 0.158 0.211 0.234 0.295 0.313 0.369 0.398 0.411 0.488 0.486 0.532 0.525 0.547 0.580 0.631 0.631 0.619 0.648 0.671 0.646 0.702 0.665 0.678 0.681 0.670 0.689 0.684 0.671 0.680 0.638 0.649 0.633 0.603 0.595 0.562 0.542 0.530 0.506 0.514 0.508 0.449 0.453 0.413 0.429 0.379 0.348 0.345 0.347 0.320 0.309 0.269 0.245 0.247 0.227 0.230 0.204 0.222 0.185 0.169 0.157 0.178 0.156 0.151 0.162 0.185 0.175 0.191 0.176 0.194 0.224 0.241 0.282 0.274 0.327 0.332 0.372 0.407 0.411 0.439 0.444 0.505 0.491 0.542 0.535 0.563 0.580 0.555 0.590 0.585 0.554 0.547 0.523 0.473 0.466 0.458 0.402 0.345 0.321 0.279 0.217 0.204 0.137 0.086 0.040 0.026 -0.034 -0.035 -0.112 -0.145 -0.144 -0.180 -0.235 -0.222 -0.254 -0.288 -0.312 -0.329 -0.337 -0.359
0.091 0.130 0.171 0.230 0.242 0.280 0.318 0.364 0.373 0.398 0.447 0.445 0.490 0.520 0.559 0.570 0.573 0.616 0.625 0.634 0.613 0.657 0.627 0.646 0.637 0.662 0.632 0.638 0.654 0.646 0.636 0.599 0.583 0.598 0.589 0.537 0.548 0.504 0.498 0.495 0.455 0.445 0.456 0.404 0.410 0.396 0.360 0.341 0.328 0.322 0.297 0.272 0.262 0.273 0.263 0.239 0.206 0.220 0.178 0.182 0.189 0.203 0.192 0.187 0.207 0.177 0.220 0.221 0.232 0.246 0.276 0.267 0.291 0.331 0.360 0.364 0.395 0.450 0.456 0.517 0.554 0.578 0.565 0.617 0.639 0.653 0.664 0.669 0.689 0.697 0.694 0.651 0.632 0.625 0.631 0.577 0.553 0.521 0.461 0.418 0.384 0.304 0.251 0.222 0.181 0.135 0.052 0.033 -0.011 -0.040 -0.088 -0.111 -0.148 -0.193 -0.235 -0.238 -0.281 -0.297 -0.302 -0.325 -0.346
0.070 0.104 0.168 0.175 0.231 0.282 0.303 0.324 0.341 0.380 0.419 0.427 0.473 0.471 0.503 0.545 0.568 0.545 0.563 0.573 0.610 0.576 0.595 0.625 0.598 0.585 0.592 0.590 0.596 0.587 0.554 0.564 0.561 0.569 0.533 0.529 0.526 0.510 0.470 0.453 0.447 0.425 0.419 0.369 0.397 0.357 0.350 0.316 0.315 0.286 0.282 0.284 0.268 0.261 0.231 0.211 0.209 0.204 0.200 0.194 0.177 0.200 0.175 0.185 0.222 0.226 0.242 0.251 0.279 0.277 0.274 0.305 0.370 0.395 0.395 0.461 0.458 0.496 0.578 0.606 0.648 0.688 0.712 0.739 0.782 0.761 0.783 0.820 0.826 0.836 0.837 0.817 0.777 0.772 0.736 0.672 0.645 0.622 0.533 0.486 0.472 0.423 0.363 0.299 0.246 0.194 0.149 0.086 0.008 -0.033 -0.057 -0.101 -0.117 -0.185 -0.195 -0.243 -0.259 -0.260 -0.311 -0.282 -0.331
0.077 0.130 0.129 0.156 0.232 0.227 0.262 0.315 0.321 0.384 0.373 0.398 0.458 0.454 0.458 0.512 0.529 0.542 0.528 0.533 0.544 0.556 0.568 0.582 0.585 0.563 0.582 0.565 0.528 0.519 0.555 0.514 0.523 0.480 0.466 0.454 0.484 0.449 0.432 0.430 0.407 0.397 0.362 0.349 0.344 0.353 0.303 0.311 0.300 0.269 0.256 0.232 0.268 0.239 0.248 0.208 0.205 0.198 0.184 0.214 0.193 0.187 0.194 0.231 0.206 0.231 0.255 0.251 0.301 0.316 0.352 0.365 0.394 0.417 0.464 0.515 0.545 0.607 0.664 0.691 0.715 0.780 0.825 0.858 0.878 0.904 0.950 0.934 0.959 0.959 0.945 0.922 0.921 0.875 0.833 0.835 0.754 0.714 0.680 0.600 0.529 0.481 0.431 0.355 0.279 0.266 0.203 0.114 0.100 0.051 -0.017 -0.067 -0.115 -0.143 -0.152 -0.177 -0.230 -0.258 -0.285 -0.296 -0.283
0.051 0.105 0.129 0.157 0.211 0.229 0.260 0.292 0.314 0.350 0.367 0.398 0.395 0.408 0.438 0.476 0.481 0.497 0.479 0.508 0.519 0.492 0.496 0.528 0.522 0.514 0.510 0.500 0.501 0.519 0.468 0.487 0.490 0.437 0.433 0.411 0.440 0.425 0.391 0.365 0.375 0.352 0.329 0.305 0.334 0.291 0.288 0.273 0.273 0.255 0.223 0.247 0.236 0.248 0.213 0.227 0.194 0.197 0.231 0.224 0.235 0.198 0.238 0.213 0.251 0.247 0.280 0.314 0.316 0.335 0.394 0.417 0.477 0.515 0.550 0.616 0.654 0.701 0.756 0.780 0.820 0.904 0.960 0.956 1.015 1.032 1.050 1.109 1.110 1.121 1.117 1.093 1.065 1.011 0.974 0.962 0.878 0.851 0.789 0.699 0.631 0.573 0.541 0.445 0.389 0.319 0.232 0.175 0.140 0.086 0.021 -0.002 -0.069 -0.130 -0.151 -0.192 -0.179 -0.218 -0.271 -0.288 -0.285
0.059 0.089 0.115 0.147 0.200 0.206 0.255 0.275 0.294 0.342 0.318 0.339 0.369 0.391 0.414 0.436 0.419 0.450 0.458 0.472 0.475 0.465 0.470 0.477 0.469 0.486 0.480 0.453 0.472 0.460 0.425 0.455 0.447 0.413 0.394 0.377 0.388 0.385 0.358 0.356 0.309 0.302 0.299 0.298 0.293 0.279 0.261 0.264 0.245 0.214 0.237 0.200 0.203 0.215 0.209 0.190 0.206 0.185 0.213 0.219 0.227 0.216 0.246 0.271 0.256 0.308 0.321 0.336 0.351 0.417 0.418 0.485 0.515 0.571 0.624 0.671 0.720 0.794 0.864 0.889 0.963 1.022 1.070 1.096 1.155 1.195 1.227 1.223 1.244 1.276 1.267 1.231 1.221 1.201 1.125 1.095 1.053 0.968 0.921 0.841 0.755 0.690 0.601 0.531 0.469 0.362 0.314 0.229 0.174 0.117 0.054 0.026 -0.037 -0.098 -0.124 -0.152 -0.194 -0.233 -0.257 -0.244 -0.276
0.048 0.075 0.091 0.122 0.188 0.210 0.218 0.237 0.284 0.293 0.316 0.326 0.325 0.384 0.396 0.408 0.409 0.407 0.414 0.413 0.428 0.422 0.445 0.449 0.452 0.424 0.409 0.432 0.406 0.381 0.406 0.386 0.390 0.388 0.357 0.325 0.353 0.311 0.331 0.326 0.304 0.275 0.288 0.278 0.261 0.239 0.216 0.241 0.221 0.203 0.198 0.208 0.201 0.216 0.194 0.185 0.192 0.229 0.193 0.244 0.225 0.226 0.250 0.277 0.281 0.315 0.353 0.379 0.392 0.432 0.480 0.515 0.594 0.642 0.717 0.762 0.809 0.868 0.929 1.017 1.091 1.158 1.187 1.236 1.319 1.322 1.380 1.419 1.422 1.404 1.427 1.386 1.367 1.346 1.306 1.250 1.162 1.111 1.045 0.971 0.864 0.804 0.727 0.603 0.561 0.464 0.359 0.286 0.224 0.164 0.130 0.063 0.028 -0.050 -0.077 -0.097 -0.171 -0.210 -0.224 -0.212 -0.261
0.040 0.055 0.108 0.131 0.165 0.162 0.184 0.222 0.249 0.255 0.288 0.312 0.325 0.330 0.345 0.334 0.353 0.361 0.372 0.397 0.378 0.363 0.384 0.408 0.401 0.382 0.398 0.347 0.384 0.351 0.346 0.343 0.334 0.335 0.308 0.315 0.281 0.295 0.280 0.273 0.264 0.225 0.256 0.254 0.202 0.208 0.192 0.215 0.225 0.192 0.199 0.203 0.181 0.209 0.212 0.204 0.199 0.192 0.214 0.210 0.216 0.250 0.277 0.302 0.327 0.342 0.395 0.387 0.445 0.486 0.542 0.613 0.666 0.695 0.753 0.853 0.920 0.990 1.050 1.118 1.195 1.263 1.329 1.395 1.439 1.471 1.536 1.573 1.576 1.599 1.592 1.566 1.529 1.488 1.456 1.374 1.332 1.256 1.177 1.088 1.001 0.916 0.797 0.739 0.635 0.525 0.446 0.373 0.298 0.235 0.175 0.110 0.042 -0.006 -0.057 -0.091 -0.141 -0.176 -0.207 -0.217 -0.215
0.035 0.033 0.060 0.086 0.147 0.170 0.189 0.191 0.212 0.211 0.234 0.262 0.275 0.282 0.289 0.302 0.338 0.347 0.309 0.327 0.335 0.356 0.359 0.333 0.326 0.316 0.301 0.327 0.322 0.297 0.295 0.303 0.304 0.283 0.263 0.269 0.269 0.258 0.231 0.247 0.204 0.189 0.212 0.222 0.216 0.174 0.166 0.186 0.186 0.187 0.196 0.159 0.159 0.165 0.177 0.198 0.180 0.197 0.227 0.227 0.241 0.289 0.302 0.305 0.338 0.373 0.429 0.451 0.467 0.515 0.593 0.655 0.730 0.804 0.838 0.904 1.005 1.086 1.180 1.249 1.328 1.406 1.455 1.535 1.614 1.646 1.685 1.747 1.732 1.743 1.737 1.711 1.677 1.660 1.621 1.533 1.458 1.374 1.290 1.219 1.087 0.985 0.886 0.815 0.710 0.637 0.531 0.447 0.366 0.289 0.232 0.139 0.083 0.040 -0.017 -0.084 -0.100 -0.132 -0.185 -0.193 -0.233
0.011 0.010 0.071 0.062 0.108 0.124 0.133 0.151 0.165 0.182 0.192 0.207 0.247 0.269 0.244 0.269 0.293 0.294 0.273 0.277 0.298 0.297 0.283 0.296 0.287 0.295 0.299 0.270 0.250 0.275 0.259 0.223 0.226 0.243 0.201 0.232 0.190 0.215 0.200 0.194 0.174 0.178 0.159 0.177 0.173 0.136 0.174 0.165 0.165 0.154 0.173 0.147 0.158 0.196 0.165 0.170 0.209 0.222 0.202 0.255 0.268 0.262 0.301 0.311 0.343 0.408 0.422 0.472 0.534 0.601 0.666 0.685 0.790 0.862 0.928 1.017 1.094 1.165 1.300 1.384 1.453 1.511 1.598 1.711 1.735 1.822 1.839 1.894 1.921 1.911 1.927 1.905 1.885 1.837 1.773 1.692 1.636 1.535 1.449 1.339 1.213 1.137 1.030 0.905 0.787 0.681 0.623 0.527 0.432 0.350 0.268 0.210 0.102 0.048 -0.009 -0.019 -0.060 -0.118 -0.131 -0.190 -0.212
-0.002 -0.006 0.021 0.087 0.093 0.097 0.138 0.161 0.153 0.173 0.199 0.187 0.224 0.209 0.209 0.244 0.253 0.235 0.238 0.222 0.216 0.242 0.215 0.223 0.224 0.244 0.219 0.206 0.216 0.198 0.223 0.169 0.186 0.176 0.151 0.157 0.159 0.142 0.175 0.129 0.129 0.141 0.151 0.114 0.136 0.147 0.122 0.113 0.144 0.141 0.152 0.151 0.156 0.159 0.167 0.175 0.203 0.233 0.248 0.241 0.259 0.275 0.328 0.334 0.369 0.407 0.490 0.521 0.565 0.610 0.721 0.770 0.826 0.908 0.997 1.098 1.178 1.285 1.378 1.488 1.560 1.690 1.772 1.816 1.919 1.944 2.037 2.031 2.095 2.095 2.093 2.064 2.009 2.001 1.910 1.865 1.750 1.645 1.555 1.482 1.356 1.208 1.137 1.026 0.870 0.764 0.673 0.576 0.464 0.376 0.326 0.232 0.173 0.114 0.055 0.007 -0.023 -0.085 -0.093 -0.136 -0.166
-0.002 -0.009 0.042 0.059 0.042 0.063 0.078 0.120 0.128 0.137 0.143 0.175 0.144 0.169 0.193 0.167 0.171 0.195 0.173 0.214 0.215 0.197 0.194 0.179 0.196 0.161 0.179 0.167 0.182 0.159 0.148 0.155 0.147 0.117 0.110 0.100 0.097 0.101 0.086 0.097 0.106 0.094 0.103 0.108 0.080 0.116 0.089 0.127 0.108 0.131 0.136 0.114 0.120 0.156 0.167 0.193 0.219 0.228 0.214 0.239 0.292 0.319 0.326 0.389 0.404 0.447 0.490 0.563 0.620 0.702 0.743 0.801 0.886 1.008 1.084 1.190 1.273 1.372 1.499 1.584 1.671 1.789 1.862 1.986 2.032 2.113 2.188 2.200 2.244 2.233 2.250 2.237 2.208 2.141 2.087 2.012 1.879 1.796 1.688 1.604 1.449 1.334 1.233 1.083 0.983 0.859 0.763 0.629 0.558 0.422 0.375 0.300 0.213 0.148 0.069 0.047 -0.020 -0.075 -0.115 -0.119 -0.170
-0.046 -0.035 0.007 0.013 0.018 0.078 0.047 0.078 0.107 0.112 0.096 0.124 0.121 0.133 0.148 0.151 0.153 0.135 0.150 0.129 0.133 0.128 0.141 0.134 0.125 0.125 0.111 0.108 0.087 0.109 0.079 0.081 0.086 0.107 0.096 0.054 0.091 0.047 0.054 0.055 0.045 0.062 0.074 0.085 0.063 0.054 0.067 0.105 0.068 0.114 0.091 0.102 0.157 0.128 0.166 0.190 0.182 0.212 0.222 0.276 0.282 0.343 0.348 0.378 0.413 0.495 0.513 0.568 0.642 0.718 0.790 0.889 0.992 1.047 1.151 1.276 1.365 1.506 1.615 1.707 1.837 1.898 2.025 2.100 2.207 2.266 2.326 2.376 2.401 2.414 2.414 2.356 2.351 2.297 2.239 2.162 2.053 1.949 1.845 1.697 1.594 1.442 1.306 1.167 1.062 0.944 0.801 0.718 0.616 0.483 0.420 0.350 0.231 0.201 0.138 0.065 -0.003 -0.017 -0.042 -0.108 -0.149
-0.038 -0.020 0.007 -0.019 0.035 0.029 0.051 0.054 0.038 0.072 0.079 0.068 0.109 0.088 0.094 0.080 0.111 0.080 0.077 0.097 0.090 0.073 0.085 0.062 0.088 0.078 0.074 0.052 0.056 0.044 0.030 0.054 0.061 0.018 0.056 0.029 0.048 0.032 0.033 0.006 0.022 0.030 0.024 0.057 0.049 0.063 0.043 0.077 0.064 0.104 0.107 0.087 0.113 0.149 0.139 0.184 0.178 0.208 0.237 0.262 0.282 0.329 0.384 0.397 0.462 0.508 0.544 0.638 0.698 0.782 0.844 0.933 1.029 1.120 1.254 1.339 1.469 1.560 1.686 1.796 1.927 2.051 2.163 2.227 2.302 2.384 2.465 2.507 2.562 2.551 2.554 2.504 2.495 2.440 2.362 2.290 2.150 2.062 1.926 1.831 1.663 1.530 1.389 1.284 1.158 1.019 0.909 0.760 0.651 0.551 0.479 0.346 0.294 0.218 0.139 0.106 0.069 0.004 -0.026 -0.084 -0.083
-0.075 -0.048 -0.031 -0.023 -0.014 0.023 0.022 0.010 0.048 0.021 0.053 0.067 0.041 0.028 0.050 0.067 0.058 0.030 0.035 0.054 0.049 0.032 0.052 0.035 0.019 0.003 0.025 0.007 0.011 -0.025 0.012 -0.010 -0.001 0.001 -0.039 -0.014 -0.041 -0.021 -0.002 -0.039 -0.020 -0.005 0.007 0.010 0.017 0.011 0.009 0.015 0.051 0.087 0.095 0.107 0.092 0.117 0.154 0.150 0.195 0.202 0.260 0.255 0.312 0.363 0.364 0.410 0.454 0.517 0.565 0.665 0.714 0.798 0.901 0.983 1.073 1.164 1.293 1.436 1.535 1.675 1.787 1.899 2.034 2.141 2.230 2.382 2.443 2.520 2.587 2.665 2.673 2.692 2.670 2.650 2.605 2.578 2.508 2.424 2.304 2.196 2.049 1.945 1.760 1.626 1.477 1.353 1.215 1.092 0.967 0.849 0.722 0.584 0.504 0.403 0.322 0.231 0.210 0.135 0.076 0.017 -0.021 -0.053 -0.099
-0.099 -0.056 -0.074 -0.038 -0.035 -0.026 -0.038 0.006 -0.004 -0.008 0.006 0.007 0.018 -0.007 0.025 0.026 0.012 0.003 0.005 -0.030 -0.024 -0.031 0.002 -0.003 -0.021 -0.043 -0.045 -0.055 -0.047 -0.049 -0.072 -0.036 -0.053 -0.064 -0.081 -0.046 -0.086 -0.055 -0.070 -0.056 -0.031 -0.039 -0.028 -0.049 0.002 -0.025 -0.013 0.015 0.046 0.027 0.076 0.096 0.122 0.141 0.146 0.159 0.167 0.208 0.255 0.271 0.291 0.354 0.413 0.426 0.472 0.558 0.627 0.688 0.771 0.822 0.942 1.018 1.149 1.262 1.342 1.460 1.598 1.731 1.884 2.001 2.137 2.249 2.340 2.448 2.546 2.636 2.690 2.765 2.787 2.826 2.837 2.800 2.728 2.682 2.625 2.532 2.403 2.270 2.145 2.035 1.886 1.718 1.593 1.430 1.262 1.146 0.986 0.874 0.784 0.640 0.542 0.429 0.363 0.289 0.208 0.134 0.097 0.053 0.021 -0.035 -0.047
-0.108 -0.102 -0.089 -0.063 -0.044 -0.048 -0.037 -0.028 -0.037 -0.036 -0.039 -0.040 -0.048 -0.061 -0.052 -0.057 -0.067 -0.064 -0.066 -0.040 -0.043 -0.065 -0.068 -0.055 -0.077 -0.111 -0.114 -0.079 -0.096 -0.106 -0.104 -0.111 -0.125 -0.097 -0.134 -0.090 -0.098 -0.122 -0.118 -0.117 -0.104 -0.093 -0.050 -0.040 -0.042 -0.012 -0.001 0.016 0.006 0.030 0.054 0.081 0.110 0.096 0.126 0.137 0.180 0.216 0.246 0.264 0.315 0.344 0.427 0.444 0.530 0.561 0.659 0.727 0.782 0.884 0.954 1.085 1.169 1.299 1.436 1.519 1.691 1.816 1.945 2.075 2.203 2.306 2.435 2.549 2.651 2.752 2.807 2.865 2.901 2.942 2.903 2.887 2.846 2.799 2.731 2.605 2.487 2.385 2.236 2.123 1.961 1.779 1.642 1.523 1.325 1.206 1.064 0.957 0.816 0.707 0.589 0.502 0.403 0.331 0.253 0.179 0.114 0.093 0.061 0.008 -0.035
-0.112 -0.097 -0.096 -0.073 -0.097 -0.072 -0.086 -0.070 -0.054 -0.087 -0.064 -0.078 -0.056 -0.086 -0.073 -0.079 -0.094 -0.111 -0.084 -0.091 -0.099 -0.130 -0.101 -0.143 -0.120 -0.150 -0.148 -0.146 -0.131 -0.149 -0.155 -0.157 -0.172 -0.177 -0.144 -0.157 -0.134 -0.124 -0.119 -0.131 -0.140 -0.110 -0.099 -0.077 -0.084 -0.051 -0.037 -0.048 -0.033 -0.012 0.029 0.062 0.054 0.082 0.124 0.139 0.167 0.211 0.243 0.298 0.330 0.380 0.443 0.485 0.512 0.577 0.677 0.722 0.800 0.914 0.990 1.130 1.211 1.348 1.457 1.565 1.729 1.865 1.997 2.154 2.253 2.385 2.512 2.618 2.738 2.856 2.886 2.980 3.002 3.001 3.007 2.968 2.944 2.864 2.792 2.720 2.572 2.438 2.324 2.167 2.001 1.870 1.718 1.538 1.383 1.235 1.109 0.977 0.860 0.722 0.624 0.545 0.453 0.337 0.264 0.221 0.145 0.123 0.060 0.015 0.016
-0.142 -0.111 -0.137 -0.106 -0.119 -0.095 -0.119 -0.111 -0.115 -0.131 -0.122 -0.102 -0.123 -0.127 -0.125 -0.119 -0.127 -0.165 -0.129 -0.177 -0.142 -0.152 -0.157 -0.195 -0.195 -0.175 -0.215 -0.188 -0.203 -0.191 -0.210 -0.194 -0.209 -0.189 -0.213 -0.202 -0.190 -0.209 -0.170 -0.167 -0.140 -0.123 -0.121 -0.113 -0.101 -0.065 -0.085 -0.068 -0.053 0.001 0.031 0.063 0.086 0.086 0.103 0.137 0.163 0.209 0.267 0.270 0.345 0.364 0.431 0.510 0.538 0.621 0.698 0.768 0.820 0.946 1.037 1.147 1.264 1.350 1.506 1.636 1.756 1.894 2.070 2.196 2.345 2.470 2.582 2.718 2.800 2.879 2.995 3.052 3.082 3.087 3.067 3.061 3.026 2.975 2.850 2.770 2.639 2.534 2.397 2.257 2.087 1.931 1.744 1.592 1.457 1.316 1.148 1.016 0.877 0.759 0.645 0.539 0.476 0.364 0.291 0.223 0.173 0.133 0.101 0.046 0.016
-0.153 -0.165 -0.150 -0.123 -0.114 -0.123 -0.141 -0.151 -0.145 -0.151 -0.128 -0.134 -0.180 -0.192 -0.158 -0.181 -0.173 -0.192 -0.184 -0.203 -0.229 -0.199 -0.213 -0.244 -0.243 -0.240 -0.261 -0.255 -0.278 -0.256 -0.235 -0.280 -0.265 -0.274 -0.244 -0.261 -0.250 -0.232 -0.221 -0.223 -0.178 -0.178 -0.169 -0.159 -0.152 -0.126 -0.080 -0.069 -0.051 -0.000 0.009 0.020 0.035 0.083 0.122 0.145 0.172 0.215 0.236 0.300 0.357 0.406 0.427 0.495 0.578 0.611 0.708 0.758 0.874 0.937 1.036 1.187 1.273 1.405 1.533 1.671 1.779 1.962 2.101 2.246 2.393 2.497 2.626 2.763 2.836 2.938 3.039 3.070 3.146 3.155 3.157 3.103 3.047 3.029 2.903 2.831 2.713 2.548 2.421 2.264 2.121 1.977 1.782 1.627 1.500 1.353 1.200 1.052 0.906 0.803 0.708 0.590 0.496 0.433 0.325 0.295 0.201 0.164 0.142 0.104 0.065
-0.165 -0.157 -0.183 -0.170 -0.149 -0.181 -0.168 -0.172 -0.181 -0.188 -0.179 -0.220 -0.196 -0.219 -0.213 -0.207 -0.223 -0.259 -0.277 -0.280 -0.258 -0.278 -0.284 -0.295 -0.292 -0.312 -0.288 -0.304 -0.325 -0.305 -0.304 -0.291 -0.308 -0.320 -0.309 -0.307 -0.256 -0.258 -0.252 -0.223 -0.207 -0.211 -0.184 -0.190 -0.179 -0.144 -0.135 -0.094 -0.086 -0.058 0.006 0.028 0.027 0.065 0.110 0.139 0.176 0.237 0.259 0.291 0.328 0.416 0.442 0.513 0.580 0.651 0.713 0.794 0.878 0.954 1.081 1.162 1.288 1.416 1.570 1.694 1.833 1.946 2.132 2.266 2.398 2.536 2.646 2.807 2.884 2.969 3.055 3.117 3.156 3.181 3.150 3.128 3.099 3.061 2.950 2.842 2.750 2.579 2.469 2.327 2.177 1.983 1.838 1.678 1.523 1.388 1.212 1.080 0.974 0.819 0.733 0.593 0.514 0.448 0.368 0.324 0.238 0.193 0.124 0.091 0.054
-0.163 -0.158 -0.183 -0.200 -0.172 -0.183 -0.181 -0.213 -0.192 -0.246 -0.211 -0.244 -0.251 -0.272 -0.248 -0.282 -0.279 -0.317 -0.295 -0.287 -0.303 -0.334 -0.320 -0.334 -0.356 -0.361 -0.359 -0.339 -0.374 -0.377 -0.368 -0.369 -0.335 -0.322 -0.329 -0.341 -0.313 -0.300 -0.281 -0.276 -0.266 -0.228 -0.237 -0.210 -0.191 -0.167 -0.160 -0.113 -0.094 -0.055 -0.022 0.026 0.028 0.089 0.120 0.143 0.170 0.239 0.254 0.312 0.336 0.382 0.476 0.528 0.555 0.667 0.731 0.795 0.904 0.998 1.064 1.219 1.315 1.437 1.550 1.712 1.857 1.983 2.114 2.271 2.403 2.537 2.679 2.813 2.891 3.012 3.084 3.141 3.186 3.210 3.195 3.136 3.116 3.028 2.957 2.857 2.770 2.595 2.476 2.326 2.163 2.023 1.845 1.671 1.529 1.383 1.256 1.105 0.956 0.840 0.734 0.658 0.529 0.443 0.384 0.340 0.250 0.214 0.162 0.111 0.111
-0.213 -0.225 -0.194 -0.216 -0.199 -0.212 -0.250 -0.248 -0.275 -0.280 -0.272 -0.280 -0.297 -0.283 -0.331 -0.342 -0.323 -0.323 -0.361 -0.336 -0.378 -0.382 -0.391 -0.388 -0.411 -0.408 -0.413 -0.406 -0.393 -0.392 -0.401 -0.406 -0.415 -0.380 -0.361 -0.345 -0.339 -0.354 -0.337 -0.321 -0.277 -0.269 -0.242 -0.215 -0.213 -0.207 -0.167 -0.154 -0.120 -0.075 -0.022 -0.008 0.012 0.048 0.086 0.137 0.191 0.241 0.273 0.292 0.363 0.415 0.443 -0.587 -0.527 -0.459 -0.381 -0.308 -0.239 -0.117 -0.029 0.092 0.191 0.310 0.466 0.619 0.730 0.876 0.993 1.157 1.278 2.543 2.672 2.790 2.900 2.968 3.084 3.132 3.155 3.152 3.181 3.149 3.091 3.032 2.937 2.877 2.736 2.609 2.468 2.321 2.190 1.989 1.833 1.674 1.554 1.415 1.270 1.093 0.974 0.892 0.737 0.673 0.545 0.464 0.429 0.363 0.294 0.215 0.195 0.138 0.144
-0.221 -0.242 -0.232 -0.257 -0.237 -0.235 -0.266 -0.253 -0.265 -0.278 -0.317 -0.303 -0.355 -0.368 -0.347 -0.371 -0.354 -0.372 -0.412 -0.400 -0.422 -0.406 -0.439 -0.425 -0.431 -0.425 -0.448 -0.435 -0.461 -0.437 -0.451 -0.460 -0.453 -0.449 -0.399 -0.419 -0.399 -0.394 -0.360 -0.344 -0.310 -0.298 -0.260 -0.272 -0.210 -0.204 -0.187 -0.157 -0.120 -0.107 -0.027 -0.027 0.022 0.063 0.072 0.136 0.173 0.202 0.281 0.304 0.365 0.403 -0.661 -1.978 -1.937 -1.835 -1.765 -1.670 -1.603 -1.518 -1.415 -1.281 -1.196 -1.076 -0.939 -0.781 -0.662 -0.510 -0.377 -0.236 -0.089 1.420 2.675 2.753 2.880 2.978 3.032 3.075 3.121 3.142 3.138 3.138 3.082 2.995 2.917 2.818 2.709 2.604 2.447 2.329 2.145 2.012 1.834 1.681 1.544 1.410 1.244 1.118 1.005 0.885 0.769 0.685 0.599 0.480 0.453 0.360 0.335 0.240 0.234 0.185 0.146
-0.235 -0.253 -0.275 -0.256 -0.260 -0.302 -0.288 -0.289 -0.337 -0.341 -0.357 -0.362 -0.385 -0.396 -0.416 -0.436 -0.404 -0.444 -0.427 -0.452 -0.467 -0.497 -0.501 -0.494 -0.485 -0.506 -0.488 -0.513 -0.512 -0.515 -0.494 -0.468 -0.495 -0.482 -0.434 -0.431 -0.410 -0.417 -0.381 -0.367 -0.357 -0.344 -0.312 -0.271 -0.277 -0.250 -0.221 -0.151 -0.142 -0.094 -0.051 -0.046 -0.009 0.062 0.086 0.112 0.153 0.211 0.251 0.317 0.376 0.413 0.459 -0.563 -0.541 -0.450 -0.398 -0.273 -0.203 -0.135 -0.016 0.066 0.203 0.341 0.457 0.577 0.714 0.854 0.972 1.140 1.232 2.518 2.632 2.730 2.830 2.923 2.970 3.029 3.065 3.099 3.105 3.052 3.006 2.977 2.874 2.793 2.676 2.568 2.402 2.264 2.155 1.974 1.813 1.685 1.536 1.395 1.254 1.098 0.984 0.874 0.787 0.664 0.583 0.504 0.461 0.386 0.325 0.278 0.264 0.215 0.180
-0.258 -0.245 -0.267 -0.283 -0.306 -0.332 -0.342 -0.354 -0.346 -0.373 -0.363 -0.391 -0.412 -0.442 -0.463 -0.452 -0.468 -0.495 -0.469 -0.500 -0.522 -0.522 -0.515 -0.527 -0.537 -0.526 -0.567 -0.539 -0.528 -0.529 -0.518 -0.510 -0.512 -0.488 -0.472 -0.483 -0.447 -0.431 -0.443 -0.416 -0.403 -0.381 -0.333 -0.322 -0.272 -0.261 -0.201 -0.190 -0.128 -0.089 -0.079 -0.036 -0.017 0.048 0.094 0.106 0.161 0.219 0.235 0.281 0.336 0.405 0.480 0.504 0.604 0.639 0.713 0.790 0.916 0.986 1.086 1.209 1.315 1.420 1.526 1.650 1.816 1.935 2.070 2.211 2.344 2.425 2.548 2.684 2.772 2.867 2.940 2.981 3.002 3.023 3.011 3.022 2.975 2.894 2.811 2.717 2.648 2.517 2.354 2.217 2.120 1.930 1.809 1.664 1.537 1.381 1.236 1.136 1.015 0.893 0.804 0.686 0.600 0.518 0.490 0.399 0.374 0.312 0.239 0.242 0.196
-0.265 -0.288 -0.320 -0.335 -0.342 -0.334 -0.364 -0.398 -0.382 -0.385 -0.409 -0.433 -0.457 -0.466 -0.471 -0.506 -0.516 -0.503 -0.522 -0.559 -0.578 -0.581 -0.564 -0.567 -0.578 -0.582 -0.569 -0.584 -0.601 -0.572 -0.565 -0.552 -0.568 -0.564 -0.536 -0.507 -0.502 -0.481 -0.449 -0.448 -0.433 -0.362 -1.474 -1.440 -1.420 -1.390 -1.345 -1.328 -1.282 -1.213 -1.204 -1.136 -1.110 -1.068 -1.054 -0.978 -0.954 -0.901 0.267 0.326 0.341 0.384 0.451 0.527 0.589 0.652 0.725 0.783 0.887 0.967 1.085 1.180 1.305 1.414 1.516 1.624 1.770 1.870 2.007 2.162 2.249 2.377 2.502 2.628 2.689 2.765 2.855 2.920 2.920 2.961 2.944 2.932 2.906 2.837 2.758 2.681 2.537 2.420 2.334 2.188 2.046 1.917 1.775 1.614 1.494 1.353 1.232 1.115 1.012 0.864 0.800 0.723 0.608 0.546 0.489 0.414 0.372 0.305 0.264 0.229 0.227
-0.291 -0.303 -0.343 -0.335 -0.354 -0.378 -0.405 -0.430 -0.402 -0.424 -0.456 -0.462 -0.515 -0.536 -0.536 -0.564 -0.535 -0.554 -0.584 -0.603 -0.583 -0.587 -0.618 -0.645 -0.643 -0.629 -0.621 -0.618 -0.649 -0.599 -0.631 -0.614 -0.588 -0.596 -0.563 -0.565 -0.548 -0.497 -0.504 -0.454 -0.412 -1.543 -2.892 -2.871 -2.833 -2.767 -2.731 -2.705 -2.656 -2.615 -2.602 -2.539 -2.493 -2.454 -2.448 -2.390 -2.358 -2.317 -0.853 0.310 0.365 0.430 0.447 0.517 0.572 0.633 0.730 0.821 0.869 0.970 1.034 1.144 1.268 1.343 1.495 1.611 1.707 1.857 1.953 2.084 2.229 2.309 2.451 2.523 2.631 2.695 2.756 2.818 2.830 2.875 2.856 2.819 2.790 2.738 2.670 2.558 2.480 2.382 2.245 2.139 2.002 1.862 1.722 1.585 1.440 1.330 1.229 1.070 0.967 0.907 0.799 0.725 0.635 0.558 0.501 0.457 0.375 0.320 0.300 0.291 0.244
-0.310 -0.338 -0.328 -0.342 -0.392 -0.388 -0.431 -0.441 -0.483 -0.496 -0.496 -0.523 -0.537 -0.548 -0.554 -0.567 -0.622 -0.630 -0.620 -0.618 -0.653 -0.647 -0.654 -0.657 -0.687 -0.673 -0.663 -0.675 -0.686 -0.652 -0.668 -0.635 -0.632 -0.609 -0.598 -0.563 -0.577 -0.524 -0.499 -0.487 -0.444 -0.414 -1.521 -1.481 -1.429 -1.436 -1.363 -1.351 -1.277 -1.263 -1.200 -1.172 -1.159 -1.101 -1.051 -1.024 -0.965 -0.889 0.263 0.287 0.341 0.386 0.454 0.510 0.581 0.623 0.711 0.785 0.887 0.936 1.038 1.134 1.225 1.335 1.443 1.539 1.665 1.789 1.927 2.028 2.134 2.227 2.340 2.458 2.533 2.603 2.639 2.704 2.752 2.747 2.726 2.727 2.686 2.642 2.556 2.503 2.392 2.264 2.160 2.062 1.925 1.812 1.678 1.541 1.396 1.307 1.178 1.081 0.959 0.875 0.785 0.710 0.626 0.570 0.528 0.434 0.393 0.360 0.316 0.282 0.285
-0.326 -0.348 -0.367 -0.364 -0.408 -0.406 -0.438 -0.481 -0.468 -0.501 -0.538 -0.548 -0.555 -0.583 -0.612 -0.613 -0.628 -0.652 -0.677 -0.676 -0.699 -0.703 -0.708 -0.713 -0.731 -0.699 -0.723 -0.728 -0.704 -0.711 -0.676 -0.663 -0.653 -0.646 -0.647 -0.597 -0.577 -0.569 -0.525 -0.530 -0.478 -0.458 -0.440 -0.370 -0.364 -0.311 -0.291 -0.252 -0.200 -0.157 -0.143 -0.054 -0.012 0.014 0.054 0.112 0.172 0.177 0.232 0.287 0.368 0.389 0.455 0.529 0.570 0.656 0.723 0.777 0.828 0.952 1.029 1.102 1.212 1.287 1.424 1.531 1.613 1.719 1.812 1.929 2.052 2.165 2.236 2.343 2.434 2.500 2.548 2.602 2.592 2.613 2.621 2.596 2.550 2.541 2.459 2.384 2.290 2.167 2.095 1.969 1.866 1.719 1.604 1.499 1.399 1.257 1.176 1.033 0.949 0.841 0.763 0.730 0.640 0.566 0.530 0.468 0.417 0.355 0.357 0.334 0.274
-0.351 -0.349 -0.408 -0.383 -0.453 -0.454 -0.469 -0.516 -0.530 -0.530 -0.569 -0.569 -0.598 -0.608 -0.662 -0.666 -0.652 -0.713 -0.698 -0.717 -0.704 -0.754 -0.741 -0.736 -0.730 -0.728 -0.759 -0.736 -0.716 -0.707 -0.704 -0.690 -0.715 -0.669 -0.670 -0.652 -0.593 -0.575 -0.560 -0.536 -0.495 -0.492 -0.465 -0.420 -0.363 -0.353 -0.277 -0.241 -0.212 -0.156 -0.120 -0.094 -0.055 -0.016 0.056 0.115 0.155 0.168 0.242 0.309 0.340 0.388 0.462 0.501 0.568 0.610 0.690 0.762 0.840 0.916 0.984 1.093 1.144 1.280 1.359 1.461 1.547 1.679 1.774 1.856 1.987 2.053 2.165 2.223 2.320 2.392 2.415 2.464 2.463 2.493 2.478 2.457 2.444 2.373 2.318 2.255 2.193 2.089 2.010 1.881 1.767 1.683 1.555 1.468 1.334 1.233 1.125 1.052 0.952 0.835 0.801 0.725 0.657 0.570 0.522 0.492 0.420 0.380 0.379 0.353 0.284
-0.344 -0.372 -0.412 -0.443 -0.442 -0.473 -0.485 -0.520 -0.565 -0.555 -0.576 -0.631 -0.637 -0.670 -0.661 -0.688 -0.736 -0.734 -0.757 -0.730 -0.750 -0.776 -0.756 -0.797 -0.796 -0.796 -0.771 -0.761 -0.745 -0.785 -0.737 -0.759 -0.727 -0.694 -0.674 -0.664 -0.660 -0.604 -0.594 -0.562 -0.541 -0.482 -0.462 -0.402 -0.389 -0.339 -0.286 -0.258 -0.229 -0.189 -0.156 -0.090 -0.032 -0.004 0.070 0.083 0.139 0.207 0.245 0.277 0.345 0.385 0.436 0.477 0.577 0.593 0.676 0.736 0.791 0.883 0.963 1.037 1.114 1.211 1.310 1.423 1.477 1.584 1.675 1.792 1.877 1.951 2.046 2.099 2.169 2.241 2.316 2.326 2.364 2.378 2.380 2.349 2.334 2.264 2.198 2.139 2.069 2.013 1.890 1.814 1.710 1.589 1.477 1.386 1.288 1.181 1.074 0.990 0.936 0.861 0.790 0.709 0.623 0.582 0.558 0.510 0.433 0.402 0.398 0.339 0.307
-0.355 -0.379 -0.430 -0.474 -0.481 -0.518 -0.537 -0.549 -0.605 -0.628 -0.627 -0.646 -0.671 -0.676 -0.725 -0.708 -0.732 -0.739 -0.780 -0.788 -0.777 -0.813 -0.791 -0.823 -0.830 -0.812 -0.822 -0.829 -0.802 -0.786 -0.755 -0.776 -0.768 -0.754 -0.727 -0.708 -0.638 -0.644 -0.628 -0.565 -0.543 -0.520 -0.463 -0.433 -0.394 -0.374 -0.337 -0.292 -0.230 -0.181 -0.160 -0.076 -0.062 0.004 0.045 0.107 0.134 0.185 0.217 0.260 0.334 0.366 0.451 0.493 0.556 0.606 0.648 0.749 0.808 0.858 0.946 0.995 1.095 1.175 1.264 1.348 1.416 1.512 1.586 1.711 1.785 1.854 1.959 2.010 2.066 2.105 2.160 2.213 2.208 2.236 2.221 2.195 2.165 2.159 2.103 2.012 1.961 1.880 1.809 1.688 1.627 1.523 1.437 1.344 1.262 1.138 1.065 0.959 0.895 0.809 0.785 0.700 0.626 0.579 0.538 0.509 0.483 0.450 0.412 0.360 0.349
-0.383 -0.442 -0.459 -0.487 -0.490 -0.511 -0.554 -0.565 -0.595 -0.631 -0.679 -0.705 -0.701 -0.744 -0.757 -0.774 -0.784 -0.811 -0.804 -0.842 -0.839 -0.821 -0.839 -0.861 -0.854 -0.865 -0.843 -0.845 -0.848 -0.810 -0.815 -0.812 -0.752 -0.756 -0.708 -0.712 -0.660 -0.648 -0.644 -0.582 -0.575 -0.545 -0.471 -0.461 -0.404 -0.384 -0.327 -0.300 -0.239 -0.218 -0.135 -0.100 -0.065 -0.027 0.026 0.096 0.135 0.175 0.221 0.250 0.323 0.350 0.412 0.480 0.527 0.581 0.643 0.723 0.772 0.831 0.921 0.991 1.051 1.148 1.198 1.306 1.352 1.461 1.530 1.615 1.713 1.744 1.853 1.893 1.969 2.027 2.024 2.101 2.096 2.126 2.081 2.075 2.072 2.039 1.960 1.899 1.843 1.798 1.724 1.642 1.518 1.456 1.357 1.282 1.175 1.127 1.021 0.931 0.880 0.789 0.760 0.697 0.653 0.608 0.541 0.514 0.495 0.446 0.441 0.375 0.361
-0.414 -0.424 -0.485 -0.495 -0.510 -0.547 -0.570 -0.635 -0.631 -0.679 -0.682 -0.734 -0.739 -0.775 -0.782 -0.795 -0.832 -0.846 -0.851 -0.872 -0.836 -0.875 -0.870 -0.896 -0.873 -0.890 -0.868 -0.861 -0.861 -0.845 -0.826 -0.838 -0.794 -0.788 -0.741 -0.752 -0.722 -0.667 -0.655 -0.589 -0.554 -0.556 -0.502 -0.440 -0.421 -0.399 -0.344 -0.295 -0.243 -0.226 -0.176 -0.111 -0.066 -0.045 0.013 0.077 0.146 0.177 0.205 0.290 0.310 0.379 0.422 0.476 0.504 0.590 0.640 0.700 0.747 0.833 0.895 0.962 0.986 1.083 1.157 1.238 1.313 1.395 1.447 1.537 1.617 1.683 1.734 1.792 1.815 1.893 1.922 1.950 1.986 1.951 1.983 1.960 1.934 1.916 1.879 1.795 1.719 1.662 1.597 1.523 1.463 1.369 1.317 1.243 1.123 1.046 1.003 0.904 0.872 0.795 0.743 0.673 0.650 0.586 0.559 0.545 0.476 0.461 0.439 0.394 0.398
-0.403 -0.459 -0.472 -0.506 -0.523 -0.567 -0.621 -0.627 -0.653 -0.714 -0.729 -0.744 -0.751 -0.795 -0.798 -0.833 -0.817 -0.873 -0.850 -0.872 -0.872 -0.917 -0.920 -0.914 -0.925 -0.921 -0.885 -0.878 -0.902 -0.885 -0.868 -0.849 -0.792 -0.812 -0.760 -0.733 -0.734 -0.688 -0.668 -0.600 -0.571 -0.577 -0.530 -0.484 -0.444 -0.371 -0.351 -0.319 -0.243 -0.222 -0.178 -0.126 -0.056 -0.042 0.002 0.079 0.118 0.156 0.218 0.236 0.326 0.380 0.424 0.451 0.522 0.579 0.587 0.654 0.733 0.769 0.865 0.893 0.985 1.019 1.081 1.155 1.218 1.304 1.368 1.442 1.482 1.581 1.599 1.679 1.711 1.754 1.789 1.829 1.840 1.832 1.832 1.850 1.796 1.756 1.733 1.701 1.647 1.566 1.518 1.423 1.396 1.301 1.257 1.152 1.105 1.003 0.973 0.878 0.853 0.761 0.716 0.706 0.657 0.607 0.551 0.538 0.504 0.458 0.439 0.447 0.431
-0.450 -0.456 -0.508 -0.523 -0.557 -0.630 -0.644 -0.672 -0.717 -0.724 -0.772 -0.752 -0.790 -0.830 -0.852 -0.835 -0.883 -0.901 -0.891 -0.897 -0.911 -0.916 -0.915 -0.918 -0.907 -0.915 -0.912 -0.924 -0.926 -0.885 -0.859 -0.865 -0.827 -0.825 -0.783 -0.743 -0.757 -0.715 -0.663 -0.629 -0.621 -0.582 -0.510 -0.487 -0.465 -0.407 -0.383 -0.295 -0.296 -0.226 -0.178 -0.136 -0.074 -0.018 0.024 0.048 0.091 0.162 0.214 0.243 0.298 0.352 0.372 0.432 0.492 0.535 0.574 0.649 0.679 0.735 0.787 0.868 0.942 0.961 1.060 1.113 1.168 1.239 1.307 1.333 1.412 1.467 1.497 1.582 1.597 1.657 1.647 1.688 1.707 1.712 1.709 1.692 1.671 1.665 1.606 1.590 1.506 1.450 1.439 1.357 1.308 1.219 1.174 1.126 1.066 0.986 0.897 0.888 0.814 0.744 0.740 0.678 0.645 0.583 0.563 0.518 0.502 0.496 0.437 0.436 0.441
-0.454 -0.507 -0.554 -0.599 -0.616 -0.618 -0.656 -0.710 -0.751 -0.778 -0.793 -0.818 -0.815 -0.840 -0.885 -0.910 -0.889 -0.935 -0.941 -0.944 -0.946 -0.957 -0.979 -0.974 -0.986 -0.974 -0.951 -0.942 -0.956 -0.908 -0.885 -0.899 -0.882 -0.832 -0.820 -0.789 -0.785 -0.730 -0.681 -0.675 -0.652 -0.610 -0.577 -0.514 -0.454 -0.410 -0.360 -0.353 -0.311 -0.260 -0.215 -0.153 -0.113 -0.054 -0.025 0.051 0.067 0.132 0.155 0.217 0.289 0.338 0.357 0.431 0.438 0.489 0.555 0.586 0.667 0.701 0.738 0.829 0.883 0.899 0.996 1.012 1.067 1.133 1.194 1.246 1.314 1.363 1.403 1.427 1.500 1.534 1.557 1.544 1.558 1.569 1.562 1.578 1.531 1.537 1.497 1.441 1.424 1.345 1.325 1.243 1.222 1.147 1.104 1.022 0.985 0.915 0.874 0.824 0.761 0.717 0.714 0.652 0.628 0.569 0.561 0.555 0.520 0.505 0.477 0.466 0.424
-0.522 -0.564 -0.574 -0.615 -0.653 -0.688 -0.704 -0.742 -0.806 -0.833 -0.838 -0.861 -0.873 -0.923 -0.930 -0.940 -0.953 -0.987 -0.970 -0.989 -1.020 -1.008 -1.029 -1.038 -1.027 -1.026 -0.982 -0.977 -0.958 -0.972 -0.937 -0.941 -0.908 -0.897 -0.854 -0.857 -0.781 -0.776 -0.764 -0.683 -0.679 -0.630 -0.606 -0.565 -0.502 -0.470 -0.396 -0.389 -0.354 -0.292 -0.218 -0.187 -0.143 -0.115 -0.074 -0.002 0.052 0.097 0.135 0.158 0.224 0.272 0.338 0.376 0.412 0.471 0.481 0.563 0.570 0.617 0.713 0.764 0.804 0.823 0.907 0.959 0.977 1.058 1.100 1.138 1.208 1.221 1.272 1.313 1.362 1.394 1.405 1.437 1.430 1.416 1.437 1.444 1.420 1.368 1.337 1.304 1.281 1.253 1.212 1.175 1.131 1.049 0.995 0.971 0.886 0.871 0.812 0.762 0.722 0.689 0.636 0.636 0.607 0.585 0.516 0.527 0.512 0.481 0.440 0.439 0.418
-0.580 -0.651 -0.673 -0.708 -0.751 -0.747 -0.821 -0.832 -0.844 -0.897 -0.923 -0.936 -0.943 -0.993 -1.008 -1.035 -1.041 -1.046 -1.078 -1.057 -1.080 -1.062 -1.074 -1.066 -1.104 -1.101 -1.093 -1.038 -1.055 -1.034 -1.039 -0.981 -0.975 -0.948 -0.950 -0.882 -0.847 -0.857 -0.792 -0.771 -0.755 -0.687 -0.646 -0.594 -0.597 -0.525 -0.483 -0.458 -0.414 -0.336 -0.304 -0.274 -0.226 -0.181 -0.098 -0.088 -0.003 0.012 0.052 0.129 0.172 0.197 0.264 0.283 0.347 0.386 0.406 0.464 0.531 0.560 0.591 0.647 0.669 0.717 0.802 0.842 0.855 0.908 0.966 1.011 1.027 1.082 1.126 1.160 1.174 1.201 1.258 1.257 1.261 1.261 1.287 1.280 1.236 1.216 1.212 1.164 1.137 1.126 1.060 1.047 1.003 0.938 0.891 0.868 0.790 0.765 0.733 0.707 0.652 0.599 0.592 0.580 0.519 0.518 0.494 0.460 0.423 0.429 0.384 0.389 0.361
-0.710 -0.761 -0.760 -0.819 -0.834 -0.905 -0.911 -0.930 -0.995 -1.027 -1.034 -1.062 -1.084 -1.123 -1.135 -1.157 -1.175 -1.190 -1.170 -1.186 -1.215 -1.187 -1.201 -1.203 -1.190 -1.197 -1.171 -1.154 -1.134 -1.155 -1.109 -1.120 -1.103 -1.050 -1.014 -1.019 -0.994 -0.966 -0.899 -0.889 -0.814 -0.781 -0.761 -0.694 -0.660 -0.615 -0.585 -0.535 -0.507 -0.438 -0.425 -0.375 -0.301 -0.286 -0.227 -0.168 -0.159 -0.098 -0.040 0.022 0.046 0.086 0.110 0.171 0.210 0.261 0.301 0.350 0.391 0.441 0.445 0.528 0.567 0.601 0.653 0.650 0.696 0.741 0.780 0.852 0.893 0.902 0.957 0.981 1.014 1.040 1.043 1.033 1.082 1.055 1.076 1.051 1.036 1.034 0.990 0.977 0.976 0.951 0.879 0.885 0.837 0.807 0.726 0.708 0.675 0.641 0.580 0.559 0.563 0.495 0.502 0.473 0.444 0.431 0.408 0.390 0.346 0.322 0.291 0.293 0.261
-0.888 -0.923 -0.925 -0.951 -0.995 -1.059 -1.072 -1.102 -1.157 -1.173 -1.169 -1.233 -1.252 -1.235 -1.274 -1.271 -1.303 -1.306 -1.332 -1.326 -1.344 -1.324 -1.331 -1.349 -1.359 -1.324 -1.346 -1.311 -1.283 -1.270 -1.265 -1.252 -1.229 -1.185 -1.157 -1.129 -1.133 -1.067 -1.075 -1.005 -0.974 -0.927 -0.878 -0.886 -0.845 -0.792 -0.719 -0.706 -0.640 -0.596 -0.556 -0.518 -0.483 -0.412 -0.365 -0.319 -0.269 -0.237 -0.217 -0.147 -0.095 -0.057 -0.048 0.021 0.046 0.093 0.113 0.164 0.224 0.266 0.265 0.349 0.358 0.388 0.466 0.484 0.509 0.556 0.589 0.608 0.667 0.712 0.699 0.762 0.777 0.773 0.822 0.839 0.831 0.820 0.839 0.813 0.806 0.790 0.771 0.768 0.753 0.727 0.690 0.633 0.645 0.578 0.550 0.513 0.518 0.474 0.422 0.387 0.376 0.335 0.309 0.324 0.295 0.283 0.262 0.253 0.216 0.209 0.163 0.146 0.134
-1.068 -1.069 -1.146 -1.136 -1.174 -1.237 -1.252 -1.283 -1.311 -1.373 -1.357 -1.401 -1.409 -1.437 -1.446 -1.488 -1.468 -1.511 -1.495 -1.510 -1.506 -1.498 -1.507 -1.507 -1.504 -1.497 -1.498 -1.479 -1.479 -1.477 -1.455 -1.398 -1.395 -1.362 -1.359 -1.307 -1.303 -1.230 -1.245 -1.202 -1.161 -1.088 -1.086 -1.054 -0.973 -0.967 -0.928 -0.864 -0.813 -0.785 -0.738 -0.684 -0.655 -0.601 -0.540 -0.487 -0.484 -0.414 -0.377 -0.317 -0.315 -0.274 -0.210 -0.195 -0.135 -0.093 -0.050 -0.026 0.010 0.049 0.100 0.131 0.148 0.198 0.212 0.244 0.290 0.309 0.372 0.410 0.412 0.425 0.492 0.472 0.514 0.548 0.566 0.556 0.561 0.565 0.563 0.588 0.563 0.555 0.545 0.523 0.520 0.464 0.458 0.452 0.383 0.359 0.353 0.300 0.280 0.252 0.237 0.237 0.180 0.160 0.145 0.160 0.133 0.078 0.097 0.091 0.032 0.036 0.041 0.011 0.015
-1.215 -1.273 -1.288 -1.349 -1.353 -1.400 -1.442 -1.465 -1.490 -1.543 -1.546 -1.560 -1.586 -1.638 -1.625 -1.624 -1.645 -1.650 -1.662 -1.674 -1.684 -1.677 -1.692 -1.661 -1.690 -1.687 -1.652 -1.667 -1.654 -1.631 -1.597 -1.580 -1.580 -1.515 -1.484 -1.490 -1.469 -1.409 -1.387 -1.333 -1.338 -1.275 -1.223 -1.221 -1.160 -1.099 -1.099 -1.033 -1.010 -0.945 -0.894 -0.852 -0.822 -0.788 -0.747 -0.697 -0.665 -0.610 -0.546 -0.531 -0.471 -0.441 -0.408 -0.368 -0.321 -0.319 -0.267 -0.239 -0.171 -0.154 -0.136 -0.089 -0.081 -0.021 0.025 0.060 0.077 0.100 0.137 0.145 0.169 0.219 0.207 0.231 0.269 0.284 0.319 0.334 0.340 0.300 0.311 0.332 0.329 0.298 0.311 0.271 0.258 0.234 0.236 0.220 0.187 0.160 0.152 0.108 0.119 0.062 0.047 0.011 0.004 0.016 -0.040 -0.057 -0.063 -0.079 -0.059 -0.087 -0.127 -0.113 -0.148 -0.137 -0.177
-1.370 -1.415 -1.433 -1.470 -1.511 -1.542 -1.584 -1.592 -1.632 -1.648 -1.690 -1.733 -1.726 -1.757 -1.782 -1.764 -1.794 -1.808 -1.817 -1.816 -1.806 -1.811 -1.799 -1.813 -1.797 -1.785 -1.792 -1.744 -1.726 -1.728 -1.715 -1.705 -1.673 -1.632 -1.646 -1.619 -1.552 -1.548 -1.488 -1.450 -1.452 -1.414 -1.362 -1.305 -1.276 -1.225 -1.224 -1.176 -1.110 -1.089 -1.046 -1.000 -0.948 -0.888 -0.889 -0.801 -0.786 -0.760 -0.717 -0.663 -0.644 -0.583 -0.533 -0.518 -0.469 -0.435 -0.410 -0.355 -0.349 -0.297 -0.294 -0.265 -0.219 -0.185 -0.141 -0.113 -0.123 -0.089 -0.065 -0.024 -0.009 0.035 0.053 0.070 0.084 0.096 0.094 0.099 0.098 0.129 0.118 0.116 0.097 0.095 0.109 0.092 0.082 0.066 0.049 0.031 0.031 0.011 -0.008 -0.045 -0.063 -0.095 -0.113 -0.097 -0.115 -0.131 -0.139 -0.167 -0.170 -0.207 -0.186 -0.221 -0.214 -0.227 -0.268 -0.270 -0.298
-1.444 -1.446 -1.492 -1.547 -1.576 -1.601 -1.645 -1.657 -1.688 -1.692 -1.719 -1.731 -1.756 -1.811 -1.780 -1.806 -1.830 -1.846 -1.836 -1.843 -1.839 -1.834 -1.811 -1.844 -1.804 -1.798 -1.789 -1.798 -1.782 -1.759 -1.754 -1.730 -1.717 -1.670 -1.670 -1.636 -1.575 -1.570 -1.553 -1.519 -1.467 -1.455 -1.377 -1.378 -1.344 -1.307 -1.237 -1.229 -1.161 -1.137 -1.100 -1.051 -1.008 -0.951 -0.901 -0.863 -0.825 -0.804 -0.747 -0.729 -0.671 -0.668 -0.631 -0.600 -0.537 -0.499 -0.461 -0.464 -0.422 -0.390 -0.374 -0.308 -0.324 -0.262 -0.247 -0.240 -0.212 -0.183 -0.148 -0.148 -0.122 -0.105 -0.065 -0.047 -0.015 -0.042 -0.026 -0.007 0.025 -0.003 -0.006 0.035 -0.010 0.000 -0.001 0.002 -0.018 -0.043 -0.067 -0.071 -0.068 -0.067 -0.115 -0.099 -0.123 -0.121 -0.133 -0.186 -0.197 -0.191 -0.214 -0.218 -0.230 -0.228 -0.269 -0.247 -0.268 -0.295 -0.307 -0.292 -0.321
-1.377 -1.390 -1.454 -1.503 -1.540 -1.541 -1.595 -1.614 -1.627 -1.671 -1.685 -1.671 -1.724 -1.706 -1.737 -1.763 -1.760 -1.740 -1.750 -1.757 -1.787 -1.759 -1.771 -1.766 -1.733 -1.762 -1.703 -1.688 -1.689 -1.659 -1.666 -1.658 -1.628 -1.620 -1.579 -1.556 -1.502 -1.515 -1.474 -1.411 -1.416 -1.378 -1.315 -1.295 -1.240 -1.232 -1.209 -1.165 -1.107 -1.047 -1.036 -1.000 -0.947 -0.936 -0.894 -0.828 -0.799 -0.775 -0.724 -0.670 -0.636 -0.598 -0.567 -0.560 -0.531 -0.470 -0.444 -0.444 -0.372 -0.352 -0.344 -0.320 -0.267 -0.248 -0.234 -0.218 -0.210 -0.186 -0.124 -0.120 -0.098 -0.102 -0.076 -0.052 -0.036 -0.034 -0.041 0.005 0.016 -0.023 0.016 0.019 -0.000 0.019 -0.017 -0.026 0.003 -0.022 -0.015 -0.048 -0.042 -0.060 -0.056 -0.100 -0.116 -0.122 -0.107 -0.113 -0.131 -0.122 -0.159 -0.151 -0.181 -0.187 -0.174 -0.217 -0.189 -0.207 -0.226 -0.259 -0.269
-1.266 -1.292 -1.326 -1.355 -1.386 -1.411 -1.441 -1.476 -1.507 -1.489 -1.535 -1.566 -1.585 -1.567 -1.612 -1.574 -1.626 -1.582 -1.607 -1.601 -1.596 -1.591 -1.577 -1.588 -1.582 -1.556 -1.544 -1.565 -1.509 -1.502 -1.510 -1.476 -1.449 -1.445 -1.417 -1.393 -1.381 -1.310 -1.297 -1.279 -1.264 -1.223 -1.194 -1.151 -1.130 -1.092 -1.023 -1.005 -0.970 -0.944 -0.899 -0.880 -0.818 -0.790 -0.753 -0.700 -0.653 -0.618 -0.614 -0.575 -0.513 -0.487 -0.475 -0.445 -0.417 -0.372 -0.335 -0.293 -0.282 -0.288 -0.242 -0.204 -0.174 -0.168 -0.159 -0.143 -0.097 -0.061 -0.055 -0.055 -0.008 0.010 0.028 0.014 0.021 0.067 0.033 0.048 0.061 0.096 0.065 0.081 0.086 0.082 0.076 0.071 0.096 0.082 0.063 0.063 0.059 0.051 0.018 0.017 0.013 0.025 -0.003 -0.001 0.015 -0.015 -0.037 -0.011 -0.024 -0.032 -0.057 -0.036 -0.072 -0.062 -0.094 -0.084 -0.120
-1.061 -1.118 -1.124 -1.169 -1.225 -1.246 -1.267 -1.278 -1.316 -1.300 -1.340 -1.342 -1.369 -1.390 -1.386 -1.389 -1.407 -1.423 -1.407 -1.385 -1.396 -1.408 -1.395 -1.367 -1.359 -1.356 -1.361 -1.306 -1.297 -1.285 -1.291 -1.271 -1.260 -1.236 -1.179 -1.197 -1.170 -1.108 -1.082 -1.063 -1.040 -0.997 -0.989 -0.944 -0.907 -0.908 -0.873 -0.798 -0.784 -0.731 -0.729 -0.658 -0.655 -0.613 -0.574 -0.558 -0.505 -0.450 -0.446 -0.416 -0.352 -0.321 -0.330 -0.275 -0.267 -0.217 -0.214 -0.187 -0.146 -0.094 -0.076 -0.087 -0.056 -0.047 0.014 0.030 0.017 0.074 0.096 0.078 0.099 0.120 0.145 0.149 0.180 0.168 0.169 0.180 0.180 0.181 0.204 0.201 0.204 0.204 0.217 0.219 0.222 0.188 0.191 0.185 0.198 0.185 0.169 0.163 0.197 0.160 0.196 0.159 0.152 0.162 0.155 0.125 0.163 0.124 0.114 0.101 0.103 0.108 0.105 0.108 0.071
-0.890 -0.919 -0.953 -0.981 -1.006 -1.033 -1.070 -1.084 -1.124 -1.117 -1.132 -1.147 -1.149 -1.185 -1.201 -1.198 -1.203 -1.181 -1.169 -1.163 -1.167 -1.156 -1.153 -1.143 -1.147 -1.121 -1.139 -1.115 -1.073 -1.070 -1.065 -1.013 -1.022 -0.990 -0.980 -0.933 -0.928 -0.889 -0.913 -0.850 -0.832 -0.811 -0.799 -0.730 -0.714 -0.694 -0.652 -0.613 -0.593 -0.570 -0.508 -0.497 -0.449 -0.438 -0.395 -0.384 -0.346 -0.324 -0.266 -0.245 -0.228 -0.188 -0.154 -0.128 -0.111 -0.063 -0.047 0.001 0.017 0.037 0.057 0.082 0.086 0.122 0.161 0.131 0.150 0.203 0.190 0.213 0.227 0.233 0.286 0.291 0.297 0.307 0.291 0.304 0.342 0.338 0.328 0.361 0.347 0.335 0.371 0.331 0.363 0.360 0.330 0.331 0.347 0.352 0.361 0.349 0.326 0.328 0.342 0.343 0.339 0.318 0.339 0.312 0.323 0.329 0.322 0.289 0.318 0.301 0.262 0.292 0.269
-0.716 -0.779 -0.822 -0.836 -0.852 -0.886 -0.905 -0.906 -0.946 -0.951 -0.981 -0.964 -0.984 -0.992 -1.004 -1.004 -0.999 -0.977 -1.007 -1.003 -0.978 -0.982 -0.971 -0.931 -0.930 -0.919 -0.926 -0.897 -0.900 -0.885 -0.839 -0.821 -0.841 -0.782 -0.774 -0.771 -0.742 -0.703 -0.676 -0.701 -0.631 -0.633 -0.629 -0.574 -0.568 -0.504 -0.479 -0.475 -0.432 -0.400 -0.364 -0.325 -0.301 -0.261 -0.238 -0.232 -0.209 -0.144 -0.122 -0.085 -0.088 -0.026 -0.029 0.007 0.051 0.054 0.103 0.112 0.129 0.159 0.156 0.185 0.203 0.254 0.246 0.277 0.265 0.285 0.321 0.320 0.338 0.338 0.370 0.375 0.370 0.416 0.429 0.415 0.413 0.439 0.452 0.462 0.461 0.439 0.446 0.487 0.459 0.452 0.492 0.479 0.480 0.460 0.482 0.493 0.495 0.483 0.451 0.451 0.454 0.495 0.489 0.453 0.459 0.486 0.483 0.464 0.477 0.471 0.440 0.449 0.418
-0.600 -0.663 -0.671 -0.708 -0.752 -0.753 -0.798 -0.803 -0.827 -0.800 -0.808 -0.823 -0.841 -0.841 -0.854 -0.866 -0.841 -0.814 -0.846 -0.805 -0.803 -0.791 -0.802 -0.780 -0.784 -0.732 -0.751 -0.736 -0.700 -0.700 -0.681 -0.667 -0.634 -0.638 -0.611 -0.595 -0.585 -0.547 -0.557 -0.527 -0.513 -0.513 -0.456 -0.471 -0.404 -0.387 -0.391 -0.359 -0.308 -0.311 -0.288 -0.233 -0.227 -0.202 -0.141 -0.103 -0.118 -0.066 -0.022 -0.026 0.036 0.061 0.073 0.082 0.120 0.146 0.144 0.178 0.220 0.241 0.258 0.260 0.259 0.278 0.310 0.345 0.369 0.367 0.382 0.381 0.405 0.427 0.438 0.437 0.446 0.489 0.468 0.497 0.496 0.477 0.524 0.495 0.526 0.535 0.547 0.543 0.524 0.544 0.548 0.540 0.551 0.545 0.551 0.544 0.567 0.585 0.564 0.592 0.572 0.593 0.588 0.548 0.591 0.547 0.558 0.566 0.572 0.572 0.570 0.549 0.537
-0.528 -0.573 -0.609 -0.648 -0.671 -0.682 -0.699 -0.703 -0.736 -0.715 -0.749 -0.722 -0.742 -0.719 -0.752 -0.746 -0.718 -0.696 -0.694 -0.694 -0.686 -0.645 -0.669 -0.646 -0.648 -0.617 -0.586 -0.560 -0.559 -0.558 -0.557 -0.534 -0.504 -0.515 -0.503 -0.470 -0.481 -0.426 -0.458 -0.431 -0.398 -0.363 -0.354 -0.352 -0.329 -0.307 -0.287 -0.275 -0.230 -0.231 -0.182 -0.165 -0.139 -0.123 -0.104 -0.039 -0.023 -0.012 0.030 0.030 0.081 0.068 0.123 0.135 0.183 0.194 0.201 0.200 0.263 0.268 0.266 0.283 0.322 0.307 0.361 0.367 0.362 0.378 0.419 0.427 0.451 0.451 0.432 0.465 0.491 0.504 0.482 0.521 0.497 0.508 0.544 0.527 0.526 0.555 0.566 0.573 0.594 0.594 0.601 0.602 0.601 0.597 0.585 0.636 0.615 0.596 0.613 0.606 0.631 0.623 0.633 0.636 0.639 0.624 0.655 0.639 0.615 0.619 0.626 0.616 0.622
-0.525 -0.553 -0.561 -0.568 -0.598 -0.625 -0.607 -0.648 -0.647 -0.641 -0.665 -0.663 -0.655 -0.622 -0.642 -0.630 -0.613 -0.587 -0.592 -0.563 -0.558 -0.538 -0.530 -0.512 -0.493 -0.502 -0.486 -0.443 -0.440 -0.449 -0.412 -0.401 -0.406 -0.408 -0.393 -0.374 -0.343 -0.359 -0.342 -0.314 -0.333 -0.313 -0.310 -0.263 -0.254 -0.260 -0.209 -0.222 -0.189 -0.148 -0.127 -0.139 -0.101 -0.081 -0.058 -0.035 0.013 0.016 0.014 0.048 0.097 0.090 0.152 0.170 0.178 0.179 0.220 0.212 0.239 0.258 0.287 0.276 0.314 0.343 0.325 0.364 0.388 0.404 0.384 0.399 0.438 0.413 0.464 0.483 0.459 0.503 0.490 0.506 0.520 0.512 0.556 0.564 0.565 0.540 0.548 0.566 0.587 0.594 0.621 0.597 0.593 0.640 0.636 0.636 0.631 0.622 0.663 0.667 0.652 0.655 0.665 0.657 0.662 0.693 0.668 0.669 0.677 0.678 0.641 0.641 0.667
-0.482 -0.491 -0.507 -0.539 -0.553 -0.560 -0.577 -0.564 -0.580 -0.574 -0.559 -0.596 -0.552 -0.555 -0.552 -0.533 -0.539 -0.487 -0.489 -0.494 -0.440 -0.454 -0.401 -0.411 -0.405 -0.396 -0.378 -0.332 -0.314 -0.351 -0.338 -0.295 -0.298 -0.307 -0.295 -0.294 -0.283 -0.252 -0.283 -0.278 -0.227 -0.257 -0.204 -0.196 -0.192 -0.168 -0.198 -0.181 -0.140 -0.128 -0.106 -0.087 -0.089 -0.067 -0.038 -0.020 -0.004 0.008 0.045 0.063 0.082 0.094 0.132 0.168 0.149 0.190 0.192 0.224 0.210 0.266 0.270 0.306 0.282 0.324 0.351 0.336 0.345 0.373 0.360 0.384 0.378 0.405 0.437 0.442 0.452 0.450 0.494 0.460 0.497 0.484 0.497 0.516 0.526 0.565 0.546 0.586 0.561 0.570 0.590 0.614 0.588 0.641 0.621 0.658 0.656 0.652 0.650 0.648 0.685 0.662 0.685 0.666 0.692 0.709 0.666 0.679 0.702 0.664 0.666 0.683 0.679
-0.461 -0.444 -0.501 -0.477 -0.507 -0.528 -0.543 -0.536 -0.523 -0.520 -0.512 -0.521 -0.511 -0.503 -0.469 -0.453 -0.404 -0.392 -0.389 -0.350 -0.355 -0.354 -0.306 -0.283 -0.252 -0.280 -0.270 -0.229 -0.221 -0.224 -0.225 -0.184 -0.175 -0.175 -0.189 -0.201 -0.185 -0.198 -0.194 -0.184 -0.170 -0.168 -0.164 -0.170 -0.151 -0.132 -0.137 -0.152 -0.127 -0.127 -0.110 -0.093 -0.052 -0.067 -0.019 -0.013 0.011 0.039 0.046 0.085 0.092 0.114 0.126 0.114 0.129 0.180 0.195 0.217 0.226 0.241 0.261 0.265 0.292 0.270 0.316 0.316 0.337 0.324 0.356 0.360 0.363 0.383 0.397 0.426 0.413 0.438 0.419 0.451 0.468 0.500 0.507 0.493 0.499 0.544 0.518 0.557 0.532 0.566 0.557 0.585 0.581 0.626 0.619 0.603 0.617 0.629 0.663 0.670 0.668 0.664 0.680 0.703 0.690 0.673 0.701 0.686 0.673 0.677 0.663 0.675 0.683
-0.407 -0.440 -0.454 -0.454 -0.470 -0.484 -0.468 -0.484 -0.475 -0.440 -0.470 -0.448 -0.402 -0.418 -0.384 -0.339 -0.322 -0.321 -0.303 -0.256 -0.238 -0.223 -0.172 -0.172 -0.169 -0.129 -0.148 -0.130 -0.110 -0.076 -0.105 -0.112 -0.075 -0.090 -0.086 -0.107 -0.089 -0.101 -0.084 -0.106 -0.097 -0.123 -0.129 -0.110 -0.112 -0.097 -0.103 -0.110 -0.092 -0.057 -0.049 -0.051 -0.031 -0.041 -0.023 -0.008 0.012 0.037 0.035 0.034 0.084 0.105 0.093 0.102 0.137 0.152 0.165 0.176 0.187 0.209 0.202 0.222 0.250 0.268 0.264 0.285 0.285 0.317 0.325 0.311 0.335 0.356 0.343 0.374 0.368 0.403 0.386 0.405 0.423 0.440 0.473 0.456 0.485 0.481 0.500 0.543 0.517 0.561 0.536 0.575 0.578 0.612 0.593 0.636 0.612 0.645 0.646 0.671 0.656 0.691 0.670 0.661 0.695 0.683 0.673 0.672 0.689 0.717 0.711 0.702 0.683
-0.405 -0.416 -0.396 -0.409 -0.426 -0.441 -0.434 -0.396 -0.426 -0.385 -0.356 -0.354 -0.344 -0.332 -0.266 -0.241 -0.214 -0.186 -0.181 -0.152 -0.091 -0.106 -0.073 -0.056 -0.004 -0.021 0.013 0.035 0.016 0.002 0.041 0.047 0.013 0.004 -0.006 -0.013 0.011 0.018 0.008 -0.028 -0.047 -0.044 -0.051 -0.043 -0.076 -0.047 -0.041 -0.050 -0.057 -0.067 -0.050 -0.039 -0.054 -0.033 0.003 0.008 0.023 0.023 0.026 0.032 0.058 0.045 0.090 0.077 0.096 0.095 0.143 0.161 0.156 0.183 0.161 0.208 0.197 0.197 0.226 0.227 0.240 0.282 0.267 0.298 0.310 0.313 0.310 0.323 0.346 0.377 0.379 0.372 0.381 0.432 0.450 0.448 0.445 0.449 0.486 0.476 0.495 0.511 0.548 0.569 0.563 0.599 0.573 0.589 0.610 0.602 0.651 0.663 0.632 0.676 0.673 0.697 0.659 0.668 0.674 0.692 0.716 0.667 0.709 0.684 0.665
-0.370 -0.367 -0.386 -0.409 -0.375 -0.357 -0.358 -0.376 -0.361 -0.344 -0.283 -0.285 -0.259 -0.186 -0.165 -0.128 -0.098 -0.072 -0.033 -0.024 0.021 0.061 0.056 0.106 0.126 0.146 0.151 0.158 0.163 0.157 0.183 0.150 0.131 0.159 0.119 0.098 0.097 0.102 0.058 0.057 0.061 0.011 0.013 -0.013 -0.003 -0.022 -0.014 -0.046 -0.021 -0.035 -0.017 -0.047 0.001 -0.037 0.001 -0.002 0.009 0.019 0.024 0.054 0.024 0.046 0.062 0.096 0.069 0.116 0.127 0.133 0.114 0.153 0.135 0.153 0.192 0.169 0.179 0.222 0.242 0.211 0.222 0.240 0.267 0.293 0.313 0.298 0.339 0.327 0.363 0.343 0.356 0.404 0.413 0.412 0.427 0.446 0.434 0.479 0.510 0.495 0.505 0.546 0.521 0.581 0.590 0.610 0.579 0.613 0.636 0.636 0.663 0.651 0.657 0.695 0.702 0.666 0.705 0.709 0.675 0.693 0.687 0.707 0.666
-0.357 -0.329 -0.333 -0.325 -0.352 -0.314 -0.291 -0.306 -0.267 -0.221 -0.233 -0.187 -0.141 -0.132 -0.069 -0.009 -0.001 0.047 0.067 0.104 0.142 0.191 0.192 0.253 0.260 0.255 0.280 0.319 0.298 0.299 0.316 0.301 0.283 0.247 0.237 0.254 0.193 0.172 0.166 0.177 0.142 0.125 0.115 0.082 0.080 0.022 0.008 0.006 0.003 -0.001 -0.001 0.018 0.002 -0.009 -0.020 0.018 0.014 0.030 -0.004 0.009 0.020 0.022 0.027 0.051 0.065 0.074 0.102 0.094 0.106 0.122 0.129 0.154 0.117 0.154 0.184 0.186 0.192 0.212 0.181 0.193 0.220 0.262 0.246 0.281 0.289 0.282 0.300 0.312 0.326 0.350 0.352 0.383 0.412 0.404 0.444 0.433 0.446 0.479 0.487 0.496 0.503 0.532 0.534 0.561 0.593 0.620 0.626 0.635 0.625 0.645 0.670 0.641 0.670 0.673 0.697 0.674 0.680 0.684 0.683 0.665 0.664
-0.324 -0.305 -0.320 -0.293 -0.269 -0.244 -0.248 -0.206 -0.184 -0.149 -0.113 -0.102 -0.033 -0.008 0.030 0.096 0.159 0.180 0.209 0.244 0.293 0.359 0.346 0.408 0.423 0.440 0.437 0.477 0.434 0.438 0.426 0.426 0.420 0.399 0.400 0.375 0.335 0.323 0.302 0.238 0.205 0.169 0.155 0.167 0.118 0.115 0.094 0.043 0.046 0.045 0.028 0.014 0.014 -0.009 0.009 -0.015 -0.000 -0.019 0.003 0.029 0.006 -0.006 0.024 0.041 0.035 0.031 0.074 0.079 0.061 0.066 0.104 0.097 0.103 0.117 0.124 0.151 0.138 0.179 0.173 0.161 0.206 0.220 0.192 0.249 0.253 0.246 0.286 0.310 0.284 0.296 0.319 0.342 0.383 0.368 0.399 0.428 0.414 0.445 0.481 0.511 0.481 0.533 0.531 0.563 0.574 0.566 0.604 0.622 0.606 0.643 0.628 0.647 0.674 0.691 0.677 0.689 0.703 0.674 0.696 0.698 0.669
-0.252 -0.244 -0.236 -0.223 -0.250 -0.212 -0.172 -0.156 -0.104 -0.080 -0.012 0.016 0.089 0.106 0.198 0.244 0.276 0.314 0.360 0.439 0.464 0.502 0.522 0.538 0.567 0.606 0.594 0.621 0.608 0.595 0.598 0.610 0.586 0.532 0.512 0.483 0.479 0.402 0.380 0.353 0.325 0.288 0.270 0.232 0.196 0.157 0.117 0.107 0.099 0.066 0.045 0.025 0.010 0.020 0.021 0.008 0.016 -0.004 -0.000 -0.020 0.004 0.022 0.016 0.019 0.007 -0.002 0.005 0.048 0.022 0.034 0.073 0.057 0.088 0.066 0.089 0.083 0.133 0.113 0.122 0.163 0.154 0.164 0.168 0.189 0.197 0.226 0.242 0.249 0.251 0.264 0.318 0.330 0.338 0.330 0.368 0.404 0.408 0.405 0.429 0.455 0.469 0.497 0.520 0.525 0.560 0.564 0.560 0.582 0.621 0.601 0.655 0.622 0.647 0.649 0.688 0.686 0.677 0.684 0.656 0.695 0.689
-0.237 -0.204 -0.186 -0.204 -0.141 -0.113 -0.111 -0.038 -0.039 0.032 0.084 0.155 0.201 0.270 0.326 0.367 0.421 0.489 0.539 0.598 0.607 0.658 0.693 0.734 0.745 0.762 0.780 0.783 0.780 0.793 0.767 0.752 0.737 0.691 0.651 0.631 0.603 0.566 0.509 0.456 0.393 0.357 0.346 0.297 0.273 0.200 0.190 0.133 0.134 0.076 0.065 0.046 0.027 0.013 -0.012 0.028 -0.029 0.015 -0.030 -0.002 -0.007 -0.033 -0.010 -0.014 0.001 -0.007 -0.018 -0.013 0.007 0.034 0.037 0.049 0.043 0.054 0.038 0.043 0.076 0.083 0.081 0.115 0.115 0.113 0.155 0.167 0.169 0.179 0.209 0.200 0.219 0.268 0.253 0.298 0.329 0.303 0.323 0.377 0.362 0.416 0.403 0.424 0.481 0.490 0.511 0.500 0.555 0.545 0.562 0.592 0.600 0.589 0.611 0.615 0.655 0.653 0.677 0.654 0.684 0.682 0.645 0.643 0.677
-0.193 -0.185 -0.151 -0.117 -0.120 -0.082 -0.039 0.007 0.082 0.114 0.163 0.251 0.292 0.359 0.450 0.496 0.559 0.622 0.676 0.731 0.811 0.831 0.895 0.915 0.926 0.958 0.975 0.947 0.990 0.948 0.914 0.936 0.868 0.834 0.798 0.738 0.717 0.663 0.606 0.578 0.521 0.441 0.436 0.386 0.327 0.291 0.225 0.203 0.183 0.138 0.091 0.064 0.045 0.059 0.027 0.005 -0.028 -0.004 -0.007 -0.029 -0.033 -0.024 -0.033 -0.059 -0.039 -0.029 -0.027 -0.023 -0.045 -0.001 -0.026 -0.020 0.023 -0.003 0.002 0.012 0.059 0.042 0.053 0.071 0.107 0.093 0.117 0.140 0.147 0.134 0.184 0.169 0.183 0.211 0.229 0.258 0.302 0.296 0.340 0.321 0.364 0.397 0.383 0.395 0.457 0.442 0.494 0.478 0.494 0.544 0.551 0.552 0.594 0.589 0.597 0.616 0.603 0.643 0.648 0.671 0.645 0.655 0.673 0.650 0.653
-0.136 -0.152 -0.116 -0.067 -0.022 0.011 0.039 0.106 0.169 0.231 0.304 0.386 0.462 0.520 0.589 0.670 0.734 0.797 0.879 0.905 0.951 1.036 1.055 1.098 1.129 1.140 1.153 1.160 1.138 1.115 1.094 1.106 1.044 0.984 0.966 0.923 0.844 0.783 0.714 0.690 0.606 0.549 0.517 0.421 0.372 0.316 0.287 0.243 0.199 0.153 0.116 0.101 0.073 0.067 0.020 0.016 -0.005 -0.004 -0.006 -0.061 -0.040 -0.068 -0.032 -0.074 -0.054 -0.051 -0.056 -0.054 -0.028 -0.057 -0.052 -0.021 -0.048 -0.037 -0.019 -0.006 -0.016 0.005 0.001 0.008 0.045 0.061 0.088 0.068 0.085 0.117 0.146 0.153 0.150 0.195 0.218 0.218 0.244 0.260 0.294 0.307 0.355 0.376 0.385 0.397 0.435 0.452 0.457 0.496 0.473 0.528 0.506 0.543 0.574 0.580 0.567 0.622 0.622 0.626 0.639 0.648 0.635 0.661 0.629 0.658 0.627
-0.113 -0.065 -0.048 0.011 0.026 0.072 0.123 0.194 0.259 0.362 0.416 0.514 0.566 0.675 0.710 0.799 0.896 0.964 1.013 1.105 1.165 1.225 1.258 1.294 1.306 1.331 1.342 1.343 1.314 1.295 1.316 1.257 1.210 1.145 1.091 1.050 0.986 0.918 0.845 0.783 0.747 0.652 0.590 0.523 0.483 0.393 0.333 0.322 0.271 0.195 0.155 0.136 0.112 0.048 0.054 0.003 0.004 -0.043 -0.033 -0.039 -0.063 -0.081 -0.097 -0.077 -0.081 -0.086 -0.060 -0.091 -0.094 -0.065 -0.073 -0.051 -0.067 -0.040 -0.038 -0.053 -0.039 -0.046 0.007 -0.004 -0.011 0.015 0.011 0.046 0.075 0.088 0.115 0.134 0.113 0.170 0.153 0.174 0.238 0.241 0.282 0.291 0.327 0.331 0.339 0.377 0.395 0.399 0.440 0.479 0.495 0.490 0.498 0.545 0.569 0.583 0.599 0.598 0.616 0.621 0.610 0.635 0.634 0.638 0.635 0.624 0.618
-0.034 -0.046 -0.001 0.051 0.126 0.174 0.220 0.288 0.394 0.430 0.528 0.592 0.718 0.773 0.874 0.981 1.045 1.133 1.203 1.291 1.348 1.412 1.439 1.485 1.519 1.528 1.545 1.518 1.503 1.516 1.478 1.447 1.383 1.317 1.256 1.227 1.128 1.069 0.997 0.917 0.837 0.771 0.682 0.613 0.534 0.485 0.415 0.359 0.272 0.232 0.211 0.141 0.108 0.083 0.050 -0.001 -0.003 -0.043 -0.055 -0.054 -0.081 -0.071 -0.072 -0.112 -0.118 -0.122 -0.101 -0.108 -0.102 -0.116 -0.111 -0.104 -0.095 -0.080 -0.111 -0.096 -0.055 -0.072 -0.066 -0.044 -0.012 -0.014 0.021 -0.007 0.021 0.049 0.062 0.079 0.111 0.100 0.125 0.154 0.187 0.185 0.238 0.235 0.299 0.281 0.305 0.342 0.357 0.394 0.394 0.415 0.471 0.451 0.502 0.521 0.523 0.544 0.564 0.590 0.579 0.578 0.586 0.631 0.594 0.637 0.630 0.613 0.644
-0.027 0.048 0.049 0.119 0.172 0.225 0.293 0.413 0.491 0.566 0.629 0.745 0.817 0.943 1.055 1.114 1.199 1.325 1.389 1.481 1.537 1.605 1.621 1.699 1.713 1.721 1.719 1.713 1.743 1.712 1.661 1.626 1.571 1.477 1.435 1.363 1.269 1.175 1.112 1.044 0.916 0.855 0.785 0.686 0.636 0.553 0.484 0.408 0.343 0.254 0.219 0.152 0.141 0.107 0.078 0.016 -0.025 -0.012 -0.046 -0.053 -0.071 -0.091 -0.115 -0.134 -0.135 -0.155 -0.119 -0.144 -0.156 -0.120 -0.148 -0.117 -0.112 -0.148 -0.123 -0.121 -0.095 -0.091 -0.089 -0.077 -0.051 -0.031 -0.026 -0.032 0.009 0.009 0.030 0.050 0.065 0.076 0.096 0.117 0.132 0.171 0.212 0.223 0.230 0.269 0.296 0.300 0.325 0.364 0.398 0.423 0.428 0.457 0.475 0.472 0.510 0.543 0.544 0.566 0.583 0.577 0.594 0.617 0.610 0.608 0.605 0.614 0.601
0.027 0.104 0.109 0.175 0.260 0.314 0.379 0.497 0.556 0.673 0.761 0.870 0.953 1.073 1.163 1.301 1.403 1.493 1.561 1.660 1.728 1.779 1.834 1.886 1.903 1.909 1.906 1.928 1.916 1.865 1.861 1.784 1.706 1.668 1.587 1.528 1.437 1.317 1.260 1.137 1.055 0.954 0.856 0.757 0.698 0.619 0.519 0.458 0.365 0.330 0.267 0.219 0.125 0.124 0.048 0.050 0.016 -0.031 -0.068 -0.062 -0.105 -0.107 -0.129 -0.149 -0.164 -0.152 -0.173 -0.163 -0.147 -0.160 -0.167 -0.154 -0.171 -0.164 -0.144 -0.173 -0.151 -0.153 -0.121 -0.120 -0.095 -0.071 -0.056 -0.076 -0.045 -0.012 0.015 0.025 0.013 0.034 0.073 0.118 0.123 0.134 0.170 0.209 0.219 0.268 0.258 0.301 0.335 0.353 0.361 0.389 0.389 0.442 0.449 0.445 0.505 0.508 0.497 0.522 0.540 0.548 0.553 0.562 0.598 0.588 0.572 0.597 0.576
0.086 0.147 0.211 0.243 0.335 0.414 0.471 0.586 0.674 0.780 0.889 0.995 1.125 1.237 1.335 1.463 1.556 1.639 1.732 1.831 1.883 1.961 2.030 2.085 2.122 2.131 2.122 2.136 2.118 2.085 2.031 1.956 1.891 1.843 1.741 1.638 1.566 1.458 1.372 1.250 1.149 1.062 0.940 0.848 0.759 0.681 0.576 0.508 0.409 0.359 0.268 0.247 0.163 0.094 0.063 0.010 0.010 -0.016 -0.082 -0.088 -0.093 -0.140 -0.145 -0.150 -0.171 -0.208 -0.177 -0.221 -0.206 -0.183 -0.196 -0.193 -0.215 -0.175 -0.202 -0.208 -0.188 -0.171 -0.143 -0.154 -0.148 -0.145 -0.127 -0.115 -0.082 -0.056 -0.057 -0.033 0.008 0.008 0.050 0.066 0.085 0.126 0.124 0.165 0.167 0.197 0.241 0.276 0.304 0.337 0.356 0.367 0.386 0.423 0.448 0.441 0.488 0.487 0.505 0.531 0.545 0.536 0.558 0.549 0.574 0.584 0.582 0.574 0.581
0.143 0.167 0.264 0.310 0.403 0.480 0.574 0.675 0.805 0.885 1.026 1.124 1.252 1.344 1.482 1.588 1.711 1.814 1.929 1.990 2.078 2.167 2.197 2.263 2.311 2.291 2.325 2.295 2.274 2.264 2.194 2.150 2.082 1.981 1.871 1.799 1.716 1.582 1.459 1.377 1.234 1.152 1.052 0.935 0.815 0.705 0.625 0.538 0.453 0.399 0.333 0.254 0.180 0.130 0.069 0.052 -0.028 -0.065 -0.100 -0.097 -0.131 -0.168 -0.145 -0.164 -0.184 -0.187 -0.243 -0.246 -0.227 -0.210 -0.255 -0.232 -0.228 -0.238 -0.205 -0.229 -0.232 -0.182 -0.191 -0.194 -0.153 -0.132 -0.133 -0.140 -0.106 -0.115 -0.078 -0.060 -0.020 -0.018 -0.003 0.020 0.083 0.103 0.112 0.129 0.153 0.197 0.206 0.237 0.285 0.289 0.327 0.356 0.347 0.384 0.419 0.426 0.433 0.461 0.492 0.486 0.517 0.517 0.524 0.542 0.557 0.565 0.546 0.555 0.583
0.175 0.260 0.324 0.370 0.466 0.562 0.663 0.784 0.895 0.999 1.132 1.226 1.382 1.497 1.644 1.724 1.864 1.959 2.064 2.194 2.236 2.307 2.389 2.438 2.453 2.495 2.477 2.465 2.445 2.409 2.367 2.282 2.235 2.138 2.023 1.928 1.847 1.702 1.573 1.460 1.371 1.230 1.137 1.023 0.887 0.801 0.708 0.601 0.485 0.416 0.342 0.288 0.211 0.128 0.094 0.054 -0.035 -0.049 -0.098 -0.113 -0.138 -0.192 -0.166 -0.192 -0.245 -0.248 -0.234 -0.240 -0.271 -0.262 -0.274 -0.253 -0.254 -0.251 -0.254 -0.268 -0.257 -0.252 -0.240 -0.242 -0.186 -0.189 -0.177 -0.136 -0.159 -0.113 -0.115 -0.063 -0.057 -0.044 -0.034 -0.010 0.053 0.051 0.097 0.088 0.146 0.154 0.161 0.192 0.220 0.285 0.273 0.307 0.319 0.374 0.363 0.403 0.437 0.447 0.447 0.466 0.507 0.503 0.506 0.537 0.516 0.519 0.560 0.537 0.550
0.242 0.314 0.379 0.438 0.527 0.651 0.742 0.871 0.961 1.129 1.217 1.354 1.489 1.619 1.772 1.895 2.039 2.139 2.260 2.336 2.403 2.491 2.577 2.609 2.627 2.659 2.659 2.648 2.626 2.581 2.505 2.447 2.382 2.295 2.198 2.086 1.934 1.814 1.696 1.594 1.430 1.306 1.217 1.080 0.950 0.844 0.727 0.654 0.559 0.423 0.358 0.267 0.208 0.163 0.080 0.015 -0.007 -0.074 -0.071 -0.142 -0.150 -0.168 -0.198 -0.224 -0.248 -0.275 -0.257 -0.302 -0.309 -0.298 -0.296 -0.304 -0.308 -0.307 -0.291 -0.270 -0.292 -0.284 -0.271 -0.258 -0.251 -0.244 -0.203 -0.217 -0.169 -0.173 -0.118 -0.135 -0.101 -0.052 -0.025 -0.039 0.016 0.029 0.035 0.087 0.097 0.149 0.156 0.164 0.214 0.259 0.278 0.261 0.320 0.310 0.333 0.376 0.408 0.397 0.424 0.449 0.442 0.456 0.504 0.492 0.506 0.521 0.497 0.513 0.505
0.270 0.343 0.410 0.497 0.604 0.695 0.812 0.940 1.098 1.227 1.323 1.480 1.609 1.779 1.913 2.026 2.177 2.294 2.397 2.490 2.585 2.674 2.708 2.787 2.812 2.823 2.834 2.807 2.798 2.725 2.699 2.626 2.522 2.436 2.284 2.171 2.093 1.921 1.819 1.692 1.540 1.404 1.293 1.121 1.017 0.891 0.801 0.668 0.558 0.482 0.398 0.286 0.230 0.138 0.087 0.022 -0.026 -0.068 -0.101 -0.138 -0.196 -0.204 -0.208 -0.228 -0.266 -0.284 -0.304 -0.308 -0.334 -0.303 -0.313 -0.336 -0.335 -0.315 -0.333 -0.335 -0.315 -0.287 -0.277 -0.302 -0.294 -0.258 -0.228 -0.205 -0.199 -0.201 -0.158 -0.136 -0.111 -0.092 -0.091 -0.066 -0.048 -0.009 0.041 0.045 0.054 0.083 0.148 0.165 0.172 0.200 0.239 0.237 0.290 0.292 0.338 0.336 0.392 0.380 0.401 0.415 0.414 0.444 0.447 0.482 0.465 0.502 0.481 0.501 0.523
0.310 0.383 0.461 0.580 0.693 0.784 0.926 1.015 1.166 1.301 1.435 1.604 1.720 1.869 2.015 2.166 2.280 2.427 2.528 2.638 2.746 2.811 2.897 2.937 2.984 2.959 3.007 2.992 2.951 2.884 2.836 2.737 2.654 2.527 2.418 2.309 2.195 2.046 1.890 1.756 1.644 1.459 1.341 1.214 1.051 0.924 0.807 0.730 0.618 0.524 0.415 0.301 0.218 0.160 0.109 0.060 -0.026 -0.052 -0.088 -0.162 -0.184 -0.218 -0.240 -0.284 -0.313 -0.305 -0.323 -0.324 -0.339 -0.364 -0.334 -0.382 -0.384 -0.381 -0.338 -0.351 -0.325 -0.349 -0.313 -0.298 -0.302 -0.273 -0.270 -0.275 -0.245 -0.246 -0.222 -0.196 -0.168 -0.150 -0.134 -0.063 -0.053 -0.025 0.003 0.028 0.026 0.060 0.107 0.125 0.173 0.167 0.227 0.250 0.264 0.254 0.299 0.307 0.347 0.358 0.389 0.407 0.404 0.447 0.457 0.452 0.478 0.445 0.477 0.475 0.473
0.369 0.446 0.547 0.617 0.716 0.841 0.981 1.133 1.256 1.394 1.542 1.687 1.833 1.983 2.121 2.294 2.404 2.540 2.660 2.763 2.868 2.955 3.005 3.055 3.126 3.147 3.141 3.108 3.069 3.011 2.930 2.862 2.785 2.665 2.517 2.407 2.299 2.112 1.989 1.844 1.699 1.532 1.403 1.283 1.133 1.006 0.877 0.752 0.649 0.498 0.443 0.311 0.255 0.152 0.096 0.042 -0.029 -0.093 -0.100 -0.171 -0.219 -0.232 -0.244 -0.294 -0.307 -0.344 -0.329 -0.356 -0.393 -0.392 -0.388 -0.392 -0.378 -0.407 -0.389 -0.363 -0.392 -0.376 -0.384 -0.337 -0.341 -0.322 -0.308 -0.309 -0.259 -0.258 -0.234 -0.192 -0.211 -0.187 -0.127 -0.140 -0.083 -0.075 -0.059 0.002 0.028 0.027 0.087 0.112 0.130 0.153 0.201 0.194 0.207 0.261 0.247 0.292 0.313 0.330 0.365 0.370 0.404 0.404 0.398 0.433 0.455 0.440 0.458 0.462 0.473
0.415 0.473 0.605 0.702 0.794 0.910 1.050 1.204 1.326 1.489 1.613 1.753 1.954 2.088 2.233 2.385 2.507 2.646 2.761 2.914 3.002 3.083 3.154 3.197 3.208 3.269 3.231 3.217 3.202 3.142 3.072 2.993 2.854 2.746 2.626 2.487 2.353 2.230 2.085 1.917 1.754 1.587 1.472 1.320 1.180 1.031 0.882 0.762 0.647 0.561 0.417 0.341 0.252 0.193 0.095 0.014 -0.023 -0.095 -0.115 -0.157 -0.239 -0.235 -0.291 -0.286 -0.331 -0.355 -0.347 -0.399 -0.391 -0.405 -0.394 -0.427 -0.407 -0.394 -0.410 -0.410 -0.415 -0.412 -0.386 -0.395 -0.360 -0.338 -0.324 -0.296 -0.312 -0.293 -0.284 -0.217 -0.210 -0.196 -0.151 -0.144 -0.118 -0.111 -0.073 -0.056 0.003 -0.007 0.032 0.065 0.079 0.141 0.169 0.165 0.184 0.200 0.260 0.263 0.283 0.316 0.342 0.331 0.376 0.351 0.377 0.382 0.394 0.426 0.431 0.406 0.417
0.449 0.556 0.605 0.728 0.854 0.969 1.100 1.252 1.384 1.532 1.702 1.835 2.002 2.152 2.308 2.499 2.628 2.768 2.899 2.984 3.118 3.178 3.273 3.307 3.336 3.345 3.372 3.319 3.286 3.257 3.147 3.064 2.988 2.830 2.701 2.599 2.416 2.302 2.113 1.987 1.820 1.668 1.491 1.330 1.210 1.051 0.924 0.813 0.651 0.561 0.434 0.340 0.256 0.159 0.076 0.006 -0.016 -0.112 -0.149 -0.200 -0.218 -0.276 -0.309 -0.310 -0.373 -0.355 -0.373 -0.396 -0.409 -0.448 -0.457 -0.428 -0.457 -0.429 -0.429 -0.460 -0.437 -0.427 -0.404 -0.387 -0.395 -0.397 -0.375 -0.347 -0.338 -0.292 -0.273 -0.291 -0.249 -0.242 -0.187 -0.159 -0.126 -0.103 -0.103 -0.089 -0.023 -0.037 0.001 0.016 0.086 0.085 0.136 0.131 0.180 0.174 0.238 0.250 0.250 0.293 0.306 0.324 0.346 0.336 0.355 0.363 0.378 0.394 0.412 0.399 0.405
0.458 0.570 0.667 0.777 0.905 1.030 1.173 1.290 1.444 1.590 1.787 1.925 2.106 2.262 2.427 2.577 2.730 2.825 2.980 3.085 3.187 3.254 3.362 3.393 3.452 3.445 3.443 3.409 3.367 3.298 3.225 3.163 3.036 2.944 2.776 2.659 2.493 2.350 2.177 2.000 1.842 1.688 1.520 1.387 1.212 1.103 0.920 0.797 0.701 0.562 0.466 0.368 0.253 0.163 0.088 0.006 -0.030 -0.085 -0.147 -0.185 -0.239 -0.295 -0.332 -0.323 -0.384 -0.375 -0.434 -0.422 -0.452 -0.471 -0.481 -0.490 -0.490 -0.469 -0.471 -0.447 -0.469 -0.445 -0.472 -0.453 -0.409 -0.397 -0.415 -0.374 -0.362 -0.360 -0.313 -0.323 -0.273 -0.263 -0.231 -0.221 -0.177 -0.173 -0.111 -0.077 -0.046 -0.060 0.001 0.023 0.061 0.073 0.095 0.118 0.147 0.139 0.211 0.200 0.247 0.246 0.269 0.301 0.286 0.299 0.317 0.338 0.343 0.352 0.391 0.376 0.404
0.521 0.621 0.711 0.827 0.932 1.074 1.236 1.356 1.486 1.661 1.814 2.010 2.135 2.295 2.479 2.607 2.756 2.918 3.032 3.137 3.266 3.360 3.408 3.475 3.485 3.524 3.506 3.485 3.425 3.374 3.308 3.221 3.078 2.984 2.821 2.683 2.549 2.367 2.218 2.051 1.886 1.705 1.548 1.400 1.262 1.119 0.956 0.825 0.701 0.571 0.478 0.347 0.239 0.178 0.108 0.019 -0.043 -0.136 -0.167 -0.242 -0.255 -0.320 -0.332 -0.352 -0.382 -0.419 -0.417 -0.438 -0.462 -0.478 -0.479 -0.476 -0.479 -0.514 -0.523 -0.510 -0.494 -0.478 -0.481 -0.459 -0.470 -0.464 -0.420 -0.416 -0.392 -0.348 -0.346 -0.327 -0.289 -0.286 -0.278 -0.236 -0.181 -0.156 -0.134 -0.122 -0.119 -0.089 -0.025 -0.034 0.013 0.039 0.064 0.088 0.118 0.150 0.182 0.179 0.207 0.200 0.226 0.234 0.256 0.277 0.291 0.314 0.351 0.347 0.332 0.376 0.358
0.516 0.623 0.736 0.848 1.005 1.091 1.231 1.381 1.540 1.716 1.896 2.023 2.218 2.392 2.551 2.676 2.833 2.965 3.108 3.240 3.300 3.391 3.453 3.530 3.531 3.547 3.558 3.557 3.514 3.428 3.363 3.234 3.156 3.023 2.901 2.735 2.578 2.399 2.264 2.069 1.894 1.762 1.565 1.413 1.277 1.119 0.981 0.837 0.684 0.602 0.449 0.374 0.237 0.185 0.089 0.014 -0.074 -0.141 -0.181 -0.216 -0.267 -0.307 -0.358 -0.389 -0.408 -0.450 -0.469 -0.453 -0.474 -0.486 -0.529 -0.521 -0.531 -0.528 -0.543 -0.506 -0.540 -0.505 -0.503 -0.468 -0.466 -0.480 -0.462 -0.429 -0.408 -0.391 -0.386 -0.374 -0.343 -0.329 -0.297 -0.239 -0.232 -0.187 -0.189 -0.173 -0.113 -0.111 -0.055 -0.038 -0.015 0.006 0.016 0.060 0.098 0.116 0.150 0.153 0.186 0.204 0.205 0.221 0.247 0.241 0.258 0.311 0.304 0.315 0.328 0.332 0.322
0.568 0.671 0.787 0.905 1.005 1.133 1.287 1.421 1.595 1.737 1.937 2.077 2.262 2.407 2.593 2.712 2.884 3.033 3.134 3.240 3.342 3.429 3.530 3.563 3.589 3.589 3.574 3.561 3.499 3.466 3.386 3.269 3.190 3.029 2.893 2.759 2.586 2.421 2.293 2.117 1.930 1.760 1.596 1.444 1.272 1.137 0.963 0.820 0.713 0.580 0.450 0.379 0.267 0.186 0.066 -0.016 -0.074 -0.130 -0.189 -0.269 -0.287 -0.355 -0.392 -0.415 -0.443 -0.443 -0.473 -0.489 -0.514 -0.514 -0.544 -0.518 -0.552 -0.533 -0.528 -0.569 -0.548 -0.543 -0.509 -0.534 -0.513 -0.486 -0.478 -0.449 -0.417 -0.446 -0.419 -0.376 -0.341 -0.352 -0.297 -0.291 -0.237 -0.259 -0.223 -0.170 -0.177 -0.115 -0.108 -0.088 -0.061 -0.005 0.003 0.003 0.064 0.093 0.078 0.097 0.164 0.169 0.186 0.217 0.192 0.232 0.253 0.258 0.244 0.280 0.293 0.293 0.300
0.571 0.685 0.784 0.904 1.036 1.176 1.308 1.470 1.607 1.770 1.932 2.091 2.262 2.424 2.579 2.724 2.905 3.029 3.148 3.257 3.399 3.447 3.533 3.577 3.625 3.620 3.606 3.568 3.543 3.463 3.405 3.287 3.164 3.026 2.923 2.742 2.600 2.458 2.263 2.121 1.946 1.781 1.617 1.428 1.259 1.131 0.949 0.856 0.694 0.576 0.452 0.358 0.271 0.175 0.063 0.002 -0.085 -0.163 -0.186 -0.272 -0.316 -0.340 -0.411 -0.422 -0.473 -0.484 -0.518 -0.530 -0.515 -0.565 -0.577 -0.570 -0.590 -0.584 -0.589 -0.573 -0.583 -0.573 -0.529 -0.557 -0.522 -0.508 -0.515 -0.478 -0.481 -0.467 -0.442 -0.397 -0.386 -0.352 -0.353 -0.297 -0.286 -0.278 -0.216 -0.186 -0.161 -0.146 -0.116 -0.083 -0.073 -0.070 -0.013 -0.015 0.030 0.069 0.047 0.072 0.125 0.154 0.168 0.156 0.177 0.208 0.216 0.220 0.220 0.271 0.280 0.273 0.282
0.637 0.696 0.822 0.955 1.055 1.216 1.346 1.477 1.643 1.812 1.981 2.114 2.297 2.441 2.604 2.753 2.915 3.058 3.167 3.282 3.370 3.453 3.519 3.580 3.597 3.601 3.599 3.598 3.517 3.471 3.402 3.289 3.180 3.034 2.920 2.741 2.590 2.407 2.257 2.092 1.945 1.737 1.587 1.407 1.283 1.099 0.951 0.837 0.691 0.579 0.466 0.313 0.246 0.160 0.051 -0.040 -0.105 -0.185 -0.223 -0.294 -0.323 -0.366 -0.395 -0.434 -0.470 -0.517 -0.522 -0.541 -0.550 -0.543 -0.588 -0.586 -0.594 -0.584 -0.587 -0.579 -0.594 -0.569 -0.582 -0.587 -0.571 -0.517 -0.519 -0.488 -0.476 -0.472 -0.440 -0.422 -0.401 -0.408 -0.365 -0.314 -0.290 -0.275 -0.245 -0.258 -0.229 -0.186 -0.172 -0.116 -0.119 -0.097 -0.059 -0.049 -0.003 0.012 0.055 0.081 0.096 0.101 0.134 0.134 0.137 0.145 0.181 0.190 0.194 0.234 0.228 0.241 0.251
0.646 0.742 0.855 0.935 1.062 1.214 1.342 1.524 1.676 1.818 1.957 2.142 2.274 2.470 2.609 2.766 2.879 3.049 3.156 3.285 3.367 3.459 3.489 3.550 3.567 3.607 3.594 3.545 3.485 3.457 3.353 3.272 3.126 3.010 2.879 2.736 2.554 2.412 2.222 2.059 1.887 1.723 1.584 1.413 1.232 1.071 0.926 0.796 0.675 0.553 0.419 0.340 0.204 0.125 0.020 -0.029 -0.114 -0.174 -0.210 -0.310 -0.349 -0.362 -0.395 -0.462 -0.484 -0.499 -0.541 -0.553 -0.591 -0.572 -0.580 -0.587 -0.608 -0.621 -0.632 -0.594 -0.620 -0.583 -0.598 -0.561 -0.592 -0.546 -0.526 -0.554 -0.515 -0.516 -0.460 -0.431 -0.422 -0.397 -0.393 -0.375 -0.339 -0.288 -0.308 -0.280 -0.221 -0.233 -0.204 -0.149 -0.134 -0.101 -0.078 -0.061 -0.012 0.002 -0.012 0.026 0.036 0.061 0.068 0.091 0.101 0.155 0.140 0.189 0.193 0.184 0.182 0.215 0.223
0.620 0.763 0.845 0.945 1.099 1.246 1.359 1.532 1.654 1.806 1.961 2.101 2.301 2.426 2.574 2.751 2.856 3.020 3.118 3.228 3.313 3.400 3.452 3.525 3.530 3.535 3.549 3.489 3.442 3.401 3.317 3.215 3.080 2.965 2.815 2.666 2.542 2.353 2.203 2.035 1.860 1.697 1.559 1.406 1.226 1.051 0.934 0.790 0.637 0.532 0.434 0.304 0.202 0.113 0.052 -0.031 -0.100 -0.172 -0.270 -0.320 -0.340 -0.400 -0.439 -0.484 -0.517 -0.521 -0.526 -0.575 -0.578 -0.615 -0.599 -0.618 -0.638 -0.631 -0.649 -0.613 -0.634 -0.595 -0.597 -0.611 -0.580 -0.593 -0.547 -0.538 -0.516 -0.508 -0.515 -0.468 -0.442 -0.408 -0.397 -0.361 -0.344 -0.330 -0.316 -0.302 -0.252 -0.216 -0.197 -0.198 -0.178 -0.143 -0.114 -0.081 -0.090 -0.039 -0.034 -0.023 0.028 0.048 0.081 0.093 0.087 0.087 0.102 0.145 0.149 0.140 0.148 0.203 0.198
0.660 0.762 0.881 0.991 1.109 1.211 1.374 1.487 1.633 1.817 1.979 2.105 2.279 2.401 2.578 2.724 2.869 2.966 3.083 3.180 3.304 3.361 3.405 3.437 3.501 3.517 3.480 3.466 3.407 3.312 3.273 3.164 3.023 2.917 2.804 2.636 2.487 2.318 2.160 2.024 1.837 1.690 1.503 1.365 1.176 1.041 0.920 0.780 0.638 0.525 0.408 0.289 0.171 0.078 0.008 -0.049 -0.155 -0.203 -0.285 -0.305 -0.354 -0.428 -0.453 -0.466 -0.506 -0.562 -0.566 -0.561 -0.600 -0.617 -0.618 -0.612 -0.641 -0.634 -0.640 -0.657 -0.630 -0.660 -0.653 -0.624 -0.626 -0.595 -0.603 -0.563 -0.574 -0.527 -0.493 -0.482 -0.450 -0.461 -0.418 -0.414 -0.365 -0.379 -0.353 -0.298 -0.263 -0.266 -0.229 -0.232 -0.163 -0.168 -0.124 -0.093 -0.118 -0.064 -0.031 -0.027 0.006 0.007 0.009 0.030 0.074 0.054 0.083 0.113 0.106 0.107 0.158 0.155 0.154
0.681 0.749 0.888 1.006 1.113 1.254 1.348 1.486 1.646 1.767 1.920 2.079 2.247 2.363 2.546 2.645 2.800 2.903 3.014 3.132 3.228 3.303 3.331 3.393 3.421 3.415 3.415 3.372 3.316 3.273 3.202 3.073 2.997 2.843 2.709 2.561 2.451 2.265 2.136 1.973 1.813 1.607 1.497 1.297 1.175 0.994 0.892 0.758 0.616 0.471 0.389 0.261 0.159 0.082 0.009 -0.063 -0.143 -0.213 -0.272 -0.342 -0.363 -0.441 -0.471 -0.503 -0.530 -0.562 -0.570 -0.589 -0.641 -0.631 -0.618 -0.644 -0.633 -0.657 -0.659 -0.650 -0.638 -0.638 -0.659 -0.658 -0.648 -0.634 -0.604 -0.601 -0.580 -0.562 -0.544 -0.508 -0.482 -0.481 -0.452 -0.439 -0.387 -0.399 -0.346 -0.333 -0.299 -0.269 -0.271 -0.243 -0.208 -0.194 -0.184 -0.166 -0.114 -0.125 -0.063 -0.043 -0.032 -0.033 0.003 0.030 0.013 0.043 0.073 0.049 0.090 0.119 0.111 0.140 0.110
0.651 0.765 0.854 0.993 1.113 1.199 1.338 1.470 1.606 1.772 1.891 2.043 2.210 2.323 2.500 2.599 2.733 2.847 2.961 3.083 3.127 3.209 3.257 3.328 3.314 3.359 3.309 3.302 3.256 3.179 3.106 3.015 2.901 2.751 2.640 2.509 2.341 2.186 2.034 1.908 1.741 1.590 1.427 1.263 1.133 1.000 0.828 0.699 0.580 0.446 0.331 0.254 0.149 0.059 -0.003 -0.084 -0.172 -0.258 -0.292 -0.357 -0.381 -0.418 -0.485 -0.509 -0.537 -0.563 -0.598 -0.607 -0.644 -0.653 -0.671 -0.676 -0.694 -0.663 -0.680 -0.682 -0.689 -0.675 -0.639 -0.652 -0.627 -0.651 -0.613 -0.627 -0.609 -0.568 -0.569 -0.515 -0.492 -0.514 -0.496 -0.465 -0.403 -0.412 -0.398 -0.338 -0.318 -0.329 -0.279 -0.250 -0.217 -0.211 -0.184 -0.167 -0.140 -0.119 -0.105 -0.116 -0.065 -0.042 -0.054 -0.031 -0.021 0.028 0.033 0.042 0.062 0.048 0.090 0.110 0.114
0.700 0.752 0.894 0.994 1.100 1.202 1.359 1.484 1.615 1.743 1.870 2.039 2.181 2.292 2.408 2.539 2.666 2.787 2.885 3.011 3.069 3.127 3.188 3.231 3.218 3.249 3.204 3.211 3.143 3.097 2.990 2.924 2.815 2.697 2.560 2.427 2.291 2.123 1.982 1.845 1.688 1.507 1.372 1.217 1.102 0.927 0.783 0.658 0.563 0.412 0.347 0.249 0.106 0.017 -0.061 -0.128 -0.198 -0.264 -0.286 -0.377 -0.407 -0.436 -0.469 -0.526 -0.563 -0.586 -0.608 -0.642 -0.629 -0.638 -0.678 -0.677 -0.664 -0.696 -0.677 -0.698 -0.671 -0.675 -0.691 -0.672 -0.640 -0.666 -0.650 -0.618 -0.602 -0.604 -0.590 -0.556 -0.522 -0.514 -0.489 -0.476 -0.437 -0.433 -0.398 -0.365 -0.355 -0.340 -0.296 -0.283 -0.280 -0.246 -0.216 -0.226 -0.167 -0.150 -0.145 -0.116 -0.125 -0.097 -0.077 -0.055 -0.053 -0.034 0.017 -0.012 0.003 0.040 0.068 0.079 0.061
0.682 0.768 0.879 0.949 1.084 1.215 1.306 1.441 1.592 1.693 1.829 1.969 2.125 2.228 2.391 2.468 2.607 2.715 2.797 2.899 2.951 3.038 3.081 3.093 3.116 3.139 3.123 3.086 3.020 2.994 2.897 2.785 2.717 2.612 2.469 2.338 2.207 2.046 1.912 1.775 1.619 1.441 1.294 1.151 1.023 0.883 0.772 0.631 0.538 0.388 0.309 0.176 0.114 0.022 -0.041 -0.135 -0.205 -0.275 -0.346 -0.358 -0.399 -0.459 -0.512 -0.548 -0.576 -0.614 -0.609 -0.628 -0.665 -0.674 -0.681 -0.682 -0.673 -0.705 -0.691 -0.714 -0.698 -0.676 -0.700 -0.684 -0.654 -0.647 -0.663 -0.616 -0.638 -0.607 -0.608 -0.563 -0.526 -0.504 -0.512 -0.466 -0.447 -0.443 -0.422 -0.385 -0.376 -0.347 -0.310 -0.306 -0.284 -0.277 -0.255 -0.218 -0.199 -0.199 -0.185 -0.158 -0.111 -0.125 -0.118 -0.099 -0.058 -0.057 -0.058 -0.024 0.000 0.011 0.023 0.040 0.031
0.672 0.757 0.862 0.986 1.061 1.195 1.320 1.434 1.528 1.671 1.774 1.915 2.039 2.197 2.306 2.425 2.510 2.645 2.730 2.825 2.874 2.934 2.961 2.996 3.002 3.037 3.014 2.967 2.908 2.868 2.794 2.689 2.619 2.509 2.385 2.240 2.087 1.993 1.851 1.679 1.557 1.405 1.270 1.104 0.978 0.869 0.697 0.610 0.502 0.395 0.287 0.191 0.095 -0.006 -0.105 -0.154 -0.215 -0.278 -0.347 -0.365 -0.443 -0.484 -0.536 -0.525 -0.598 -0.591 -0.604 -0.622 -0.638 -0.672 -0.696 -0.697 -0.690 -0.703 -0.705 -0.728 -0.715 -0.721 -0.715 -0.677 -0.668 -0.674 -0.653 -0.627 -0.609 -0.609 -0.610 -0.571 -0.563 -0.545 -0.512 -0.520 -0.483 -0.445 -0.435 -0.407 -0.411 -0.370 -0.347 -0.340 -0.294 -0.280 -0.277 -0.252 -0.251 -0.217 -0.200 -0.197 -0.156 -0.161 -0.149 -0.102 -0.080 -0.095 -0.090 -0.068 -0.055 -0.041 -0.031 -0.008 -0.005
0.689 0.776 0.865 0.951 1.057 1.175 1.281 1.375 1.504 1.644 1.770 1.874 1.995 2.134 2.243 2.350 2.448 2.555 2.616 2.711 2.759 2.800 2.859 2.905 2.873 2.881 2.890 2.818 2.796 2.735 2.667 2.578 2.458 2.393 2.253 2.148 2.035 1.870 1.749 1.580 1.459 1.313 1.166 1.064 0.945 0.818 0.679 0.574 0.457 0.321 0.241 0.153 0.069 -0.016 -0.087 -0.152 -0.232 -0.274 -0.348 -0.374 -0.426 -0.467 -0.515 -0.575 -0.585 -0.615 -0.621 -0.668 -0.643 -0.673 -0.710 -0.716 -0.714 -0.715 -0.723 -0.702 -0.718 -0.719 -0.722 -0.692 -0.678 -0.688 -0.666 -0.634 -0.653 -0.624 -0.592 -0.590 -0.567 -0.553 -0.523 -0.544 -0.517 -0.477 -0.478 -0.435 -0.424 -0.401 -0.401 -0.346 -0.333 -0.310 -0.298 -0.283 -0.246 -0.234 -0.212 -0.226 -0.211 -0.190 -0.144 -0.165 -0.151 -0.104 -0.083 -0.084 -0.049 -0.072 -0.036 -0.038 -0.002
0.666 0.743 0.864 0.957 1.059 1.136 1.259 1.383 1.465 1.596 1.691 1.810 1.910 2.035 2.125 2.257 2.336 2.449 2.537 2.575 2.648 2.702 2.742 2.734 2.763 2.766 2.765 2.720 2.661 2.611 2.551 2.479 2.363 2.242 2.127 2.028 1.921 1.781 1.657 1.545 1.388 1.238 1.122 0.972 0.870 0.770 0.630 0.510 0.411 0.292 0.207 0.114 0.025 -0.054 -0.100 -0.177 -0.266 -0.318 -0.386 -0.424 -0.452 -0.516 -0.524 -0.558 -0.601 -0.609 -0.650 -0.665 -0.687 -0.678 -0.693 -0.722 -0.696 -0.715 -0.719 -0.711 -0.722 -0.728 -0.689 -0.727 -0.715 -0.693 -0.673 -0.652 -0.665 -0.648 -0.604 -0.625 -0.613 -0.582 -0.561 -0.557 -0.498 -0.479 -0.500 -0.476 -0.431 -0.412 -0.396 -0.358 -0.364 -0.324 -0.320 -0.317 -0.276 -0.293 -0.236 -0.243 -0.206 -0.203 -0.168 -0.169 -0.154 -0.142 -0.120 -0.088 -0.081 -0.103 -0.049 -0.038 -0.026
0.679 0.738 0.818 0.937 1.003 1.123 1.206 1.345 1.410 1.551 1.636 1.764 1.884 1.970 2.085 2.187 2.242 2.315 2.405 2.453 2.514 2.585 2.619 2.614 2.627 2.624 2.602 2.558 2.535 2.468 2.423 2.307 2.241 2.163 2.046 1.903 1.797 1.705 1.564 1.456 1.326 1.170 1.064 0.924 0.812 0.688 0.564 0.455 0.366 0.265 0.176 0.074 0.026 -0.046 -0.157 -0.215 -0.281 -0.302 -0.351 -0.428 -0.478 -0.512 -0.520 -0.583 -0.582 -0.613 -0.644 -0.647 -0.688 -0.705 -0.719 -0.731 -0.711 -0.724 -0.730 -0.709 -0.712 -0.736 -0.739 -0.703 -0.681 -0.675 -0.665 -0.667 -0.663 -0.652 -0.652 -0.611 -0.604 -0.575 -0.551 -0.546 -0.513 -0.503 -0.484 -0.483 -0.479 -0.431 -0.411 -0.423 -0.377 -0.359 -0.367 -0.355 -0.298 -0.318 -0.256 -0.251 -0.253 -0.243 -0.227 -0.212 -0.197 -0.167 -0.153 -0.154 -0.138 -0.132 -0.083 -0.090 -0.063
0.696 0.762 0.845 0.901 0.995 1.090 1.211 1.292 1.399 1.474 1.605 1.692 1.817 1.869 2.006 2.065 2.153 2.220 2.296 2.377 2.399 2.428 2.470 2.477 2.509 2.479 2.482 2.433 2.414 2.359 2.267 2.199 2.145 2.014 1.911 1.826 1.683 1.586 1.465 1.330 1.243 1.125 0.997 0.894 0.731 0.647 0.542 0.452 0.330 0.218 0.141 0.073 -0.033 -0.110 -0.146 -0.200 -0.279 -0.324 -0.380 -0.446 -0.453 -0.522 -0.544 -0.595 -0.611 -0.601 -0.665 -0.662 -0.678 -0.706 -0.681 -0.706 -0.735 -0.707 -0.709 -0.720 -0.715 -0.720 -0.713 -0.738 -0.720 -0.685 -0.701 -0.684 -0.690 -0.629 -0.636 -0.628 -0.619 -0.579 -0.581 -0.544 -0.555 -0.531 -0.509 -0.498 -0.462 -0.482 -0.425 -0.427 -0.415 -0.412 -0.396 -0.347 -0.330 -0.337 -0.292 -0.267 -0.258 -0.269 -0.256 -0.245 -0.233 -0.176 -0.186 -0.185 -0.169 -0.141 -0.117 -0.129 -0.074
0.692 0.767 0.835 0.912 0.987 1.067 1.175 1.280 1.352 1.424 1.536 1.657 1.749 1.840 1.905 2.008 2.045 2.134 2.171 2.266 2.294 2.334 2.351 2.352 2.379 2.351 2.328 2.295 2.277 2.212 2.146 2.064 1.991 1.908 1.806 1.689 1.623 1.514 1.378 1.255 1.137 1.015 0.936 0.827 0.688 0.597 0.463 0.413 0.310 0.200 0.115 0.024 -0.048 -0.109 -0.181 -0.256 -0.316 -0.333 -0.375 -0.444 -0.470 -0.494 -0.553 -0.559 -0.603 -0.614 -0.632 -0.649 -0.694 -0.694 -0.711 -0.727 -0.699 -0.709 -0.706 -0.711 -0.728 -0.729 -0.711 -0.695 -0.697 -0.721 -0.689 -0.675 -0.670 -0.681 -0.622 -0.612 -0.603 -0.624 -0.598 -0.574 -0.558 -0.530 -0.509 -0.495 -0.485 -0.476 -0.465 -0.423 -0.407 -0.411 -0.376 -0.370 -0.357 -0.343 -0.322 -0.311 -0.303 -0.263 -0.258 -0.244 -0.262 -0.220 -0.210 -0.192 -0.177 -0.169 -0.175 -0.141 -0.125
0.670 0.720 0.813 0.898 0.958 1.065 1.128 1.228 1.320 1.390 1.482 1.582 1.678 1.728 1.814 1.917 1.983 2.051 2.063 2.114 2.188 2.215 2.229 2.256 2.218 2.248 2.199 2.166 2.135 2.080 2.011 1.973 1.880 1.767 1.718 1.627 1.518 1.409 1.293 1.179 1.055 0.955 0.851 0.735 0.653 0.541 0.432 0.362 0.237 0.193 0.110 0.028 -0.058 -0.136 -0.175 -0.267 -0.298 -0.369 -0.419 -0.421 -0.465 -0.525 -0.570 -0.562 -0.627 -0.614 -0.654 -0.657 -0.701 -0.679 -0.720 -0.696 -0.712 -0.746 -0.742 -0.740 -0.750 -0.702 -0.736 -0.730 -0.697 -0.712 -0.695 -0.667 -0.653 -0.675 -0.654 -0.626 -0.633 -0.610 -0.591 -0.566 -0.587 -0.574 -0.532 -0.547 -0.521 -0.469 -0.458 -0.441 -0.421 -0.422 -0.405 -0.403 -0.404 -0.379 -0.380 -0.323 -0.342 -0.295 -0.278 -0.282 -0.251 -0.261 -0.248 -0.227 -0.222 -0.184 -0.206 -0.152 -0.137
0.679 0.717 0.780 0.868 0.964 1.042 1.101 1.204 1.279 1.361 1.431 1.528 1.593 1.683 1.741 1.793 1.875 1.926 1.963 2.041 2.044 2.076 2.092 2.133 2.121 2.091 2.075 2.053 2.001 1.934 1.903 1.826 1.742 1.674 1.603 1.514 1.388 1.309 1.182 1.078 1.004 0.898 0.764 0.700 0.561 0.476 0.392 0.325 0.237 0.158 0.065 -0.021 -0.075 -0.161 -0.192 -0.269 -0.297 -0.379 -0.399 -0.429 -0.487 -0.529 -0.561 -0.576 -0.608 -0.620 -0.634 -0.668 -0.699 -0.669 -0.717 -0.720 -0.714 -0.732 -0.724 -0.744 -0.739 -0.720 -0.727 -0.739 -0.713 -0.681 -0.683 -0.707 -0.690 -0.671 -0.666 -0.640 -0.653 -0.622 -0.615 -0.570 -0.559 -0.566 -0.558 -0.541 -0.510 -0.521 -0.494 -0.471 -0.470 -0.448 -0.438 -0.411 -0.427 -0.413 -0.374 -0.350 -0.348 -0.339 -0.343 -0.313 -0.321 -0.269 -0.280 -0.270 -0.230 -0.241 -0.200 -0.187 -0.180
0.669 0.751 0.775 0.841 0.913 1.001 1.094 1.158 1.212 1.281 1.392 1.435 1.540 1.618 1.640 1.714 1.757 1.826 1.894 1.938 1.968 1.981 1.980 2.001 1.967 1.997 1.954 1.906 1.892 1.822 1.764 1.694 1.648 1.549 1.499 1.395 1.308 1.195 1.109 1.022 0.901 0.823 0.742 0.604 0.555 0.429 0.357 0.256 0.175 0.126 0.055 -0.027 -0.117 -0.142 -0.201 -0.288 -0.304 -0.353 -0.398 -0.450 -0.514 -0.521 -0.531 -0.574 -0.622 -0.642 -0.637 -0.665 -0.685 -0.708 -0.705 -0.688 -0.729 -0.705 -0.729 -0.715 -0.743 -0.714 -0.705 -0.735 -0.698 -0.685 -0.671 -0.696 -0.680 -0.691 -0.672 -0.623 -0.646 -0.645 -0.634 -0.597 -0.591 -0.557 -0.552 -0.538 -0.559 -0.513 -0.500 -0.491 -0.492 -0.456 -0.462 -0.431 -0.441 -0.396 -0.408 -0.395 -0.381 -0.384 -0.372 -0.336 -0.324 -0.317 -0.289 -0.301 -0.285 -0.244 -0.236 -0.201 -0.186
0.645 0.746 0.806 0.837 0.912 0.987 1.046 1.104 1.213 1.262 1.324 1.379 1.473 1.520 1.573 1.622 1.705 1.728 1.769 1.807 1.836 1.877 1.885 1.855 1.862 1.845 1.817 1.780 1.749 1.737 1.637 1.609 1.548 1.469 1.375 1.305 1.220 1.142 1.038 0.922 0.819 0.740 0.670 0.578 0.457 0.405 0.317 0.214 0.175 0.094 0.020 -0.063 -0.121 -0.185 -0.224 -0.285 -0.313 -0.390 -0.419 -0.458 -0.509 -0.543 -0.538 -0.556 -0.604 -0.623 -0.619 -0.670 -0.664 -0.705 -0.690 -0.723 -0.713 -0.698 -0.708 -0.731 -0.714 -0.697 -0.702 -0.707 -0.713 -0.711 -0.715 -0.694 -0.667 -0.673 -0.665 -0.634 -0.631 -0.605 -0.639 -0.605 -0.597 -0.597 -0.564 -0.536 -0.540 -0.523 -0.503 -0.518 -0.505 -0.484 -0.483 -0.473 -0.441 -0.448 -0.403 -0.390 -0.378 -0.393 -0.377 -0.351 -0.366 -0.341 -0.310 -0.309 -0.295 -0.287 -0.276 -0.237 -0.235
0.662 0.729 0.756 0.820 0.877 0.960 1.046 1.091 1.162 1.226 1.289 1.339 1.406 1.450 1.530 1.540 1.587 1.645 1.696 1.716 1.724 1.737 1.752 1.741 1.740 1.711 1.727 1.696 1.640 1.602 1.552 1.464 1.422 1.326 1.281 1.183 1.097 1.049 0.969 0.876 0.758 0.696 0.601 0.509 0.452 0.323 0.244 0.172 0.111 0.064 0.001 -0.078 -0.152 -0.216 -0.230 -0.281 -0.323 -0.382 -0.445 -0.451 -0.512 -0.508 -0.539 -0.585 -0.575 -0.631 -0.638 -0.643 -0.650 -0.680 -0.689 -0.674 -0.676 -0.708 -0.710 -0.730 -0.704 -0.688 -0.730 -0.711 -0.703 -0.697 -0.689 -0.673 -0.659 -0.653 -0.674 -0.656 -0.659 -0.641 -0.613 -0.621 -0.594 -0.614 -0.564 -0.581 -0.548 -0.545 -0.555 -0.507 -0.496 -0.500 -0.501 -0.465 -0.468 -0.448 -0.441 -0.427 -0.426 -0.411 -0.387 -0.380 -0.361 -0.366 -0.332 -0.354 -0.318 -0.293 -0.301 -0.247 -0.269
0.638 0.713 0.783 0.830 0.890 0.926 1.025 1.055 1.122 1.163 1.221 1.286 1.330 1.380 1.420 1.499 1.540 1.554 1.613 1.594 1.630 1.652 1.670 1.631 1.623 1.638 1.614 1.564 1.551 1.509 1.442 1.392 1.295 1.253 1.179 1.094 1.049 0.947 0.853 0.781 0.715 0.608 0.560 0.449 0.404 0.318 0.221 0.162 0.081 0.029 -0.061 -0.079 -0.156 -0.216 -0.258 -0.303 -0.351 -0.390 -0.429 -0.477 -0.473 -0.502 -0.572 -0.583 -0.617 -0.606 -0.645 -0.661 -0.661 -0.679 -0.669 -0.688 -0.674 -0.720 -0.706 -0.688 -0.707 -0.697 -0.688 -0.719 -0.671 -0.713 -0.690 -0.685 -0.670 -0.681 -0.664 -0.627 -0.651 -0.631 -0.631 -0.610 -0.600 -0.585 -0.578 -0.554 -0.545 -0.539 -0.538 -0.533 -0.512 -0.508 -0.497 -0.520 -0.480 -0.469 -0.468 -0.432 -0.461 -0.424 -0.428 -0.391 -0.404 -0.377 -0.358 -0.364 -0.318 -0.320 -0.312 -0.283 -0.282
0.675 0.728 0.788 0.821 0.890 0.939 0.972 1.037 1.081 1.142 1.194 1.243 1.307 1.341 1.401 1.436 1.458 1.465 1.509 1.539 1.522 1.534 1.527 1.555 1.510 1.540 1.469 1.464 1.410 1.388 1.347 1.286 1.207 1.136 1.086 1.014 0.945 0.896 0.785 0.703 0.661 0.561 0.500 0.433 0.320 0.253 0.198 0.118 0.050 -0.015 -0.038 -0.132 -0.170 -0.217 -0.272 -0.301 -0.330 -0.397 -0.424 -0.462 -0.504 -0.507 -0.523 -0.585 -0.580 -0.593 -0.641 -0.614 -0.653 -0.684 -0.692 -0.659 -0.677 -0.688 -0.689 -0.670 -0.693 -0.684 -0.670 -0.668 -0.667 -0.669 -0.665 -0.667 -0.661 -0.662 -0.643 -0.647 -0.645 -0.623 -0.609 -0.612 -0.621 -0.600 -0.590 -0.563 -0.601 -0.572 -0.563 -0.555 -0.517 -0.537 -0.501 -0.501 -0.516 -0.473 -0.484 -0.478 -0.470 -0.459 -0.435 -0.453 -0.440 -0.381 -0.389 -0.359 -0.361 -0.334 -0.336 -0.289 -0.319
0.648 0.686 0.750 0.813 0.865 0.893 0.936 1.011 1.056 1.091 1.135 1.187 1.255 1.285 1.289 1.329 1.390 1.386 1.438 1.434 1.466 1.474 1.456 1.424 1.430 1.403 1.376 1.368 1.313 1.262 1.234 1.193 1.107 1.066 0.990 0.933 0.847 0.817 0.705 0.636 0.589 0.523 0.435 0.365 0.309 0.246 0.164 0.088 0.043 -0.045 -0.097 -0.137 -0.203 -0.214 -0.255 -0.336 -0.365 -0.408 -0.413 -0.443 -0.488 -0.507 -0.512 -0.583 -0.560 -0.575 -0.593 -0.602 -0.623 -0.656 -0.677 -0.644 -0.652 -0.681 -0.676 -0.667 -0.699 -0.691 -0.693 -0.668 -0.663 -0.663 -0.689 -0.643 -0.681 -0.675 -0.646 -0.653 -0.635 -0.619 -0.644 -0.618 -0.612 -0.625 -0.615 -0.613 -0.568 -0.568 -0.562 -0.576 -0.574 -0.565 -0.544 -0.547 -0.530 -0.516 -0.519 -0.510 -0.488 -0.486 -0.452 -0.449 -0.417 -0.429 -0.397 -0.388 -0.377 -0.376 -0.366 -0.321 -0.322
0.648 0.707 0.750 0.807 0.826 0.872 0.921 0.964 1.008 1.090 1.103 1.149 1.201 1.203 1.257 1.299 1.284 1.354 1.344 1.350 1.390 1.344 1.371 1.363 1.349 1.315 1.303 1.290 1.224 1.188 1.136 1.097 1.022 0.971 0.922 0.844 0.801 0.710 0.653 0.606 0.523 0.443 0.395 0.317 0.248 0.214 0.146 0.069 -0.008 -0.061 -0.092 -0.150 -0.175 -0.248 -0.291 -0.297 -0.346 -0.380 -0.445 -0.454 -0.502 -0.524 -0.522 -0.530 -0.592 -0.569 -0.619 -0.593 -0.617 -0.656 -0.639 -0.654 -0.653 -0.647 -0.645 -0.672 -0.651 -0.677 -0.678 -0.664 -0.680 -0.667 -0.651 -0.634 -0.658 -0.639 -0.650 -0.659 -0.630 -0.608 -0.633 -0.605 -0.605 -0.627 -0.606 -0.614 -0.613 -0.603 -0.570 -0.565 -0.548 -0.548 -0.572 -0.534 -0.553 -0.528 -0.506 -0.515 -0.482 -0.486 -0.483 -0.483 -0.484 -0.465 -0.413 -0.405 -0.424 -0.378 -0.386 -0.334 -0.343
